# .PCD v0.7 - Point Cloud Data file format
VERSION 0.7
FIELDS x y z
SIZE 4 4 4
TYPE F F F
COUNT 1 1 1
WIDTH 1662
HEIGHT 1
VIEWPOINT 0 0 0 1 0 0 0
POINTS 1662
DATA ascii
0.90943003 -0.039593 0.17044
0.92535001 -0.061503999 0.16699
0.91518003 -0.057388 0.17541
0.93101001 -0.039448 0.15277
0.91557997 -0.031174 0.15925001
0.93528998 -0.056417 0.15672
0.76542002 0.079609998 0.22675
0.75818002 0.075364999 0.22163001
0.7658 0.060662001 0.23103
0.80110002 0.035503 0.22093999
0.79237002 0.038107999 0.22272
0.80568999 0.014161 0.22143
0.79113001 0.019200001 0.22696
0.77078003 0.036068998 0.24098
0.76789999 0.02813 0.24052
0.86456001 -0.067295998 0.22046
0.82565999 -0.048087001 0.24253
0.84165001 -0.069481 0.24029
0.82440001 -0.060377002 0.24307001
0.84283 -0.044771999 0.2216
0.83090001 -0.044985 0.22964001
0.84595001 -0.063977003 0.22677
0.83345997 -0.056960002 0.23299
0.78561997 -0.0071568 0.24098
0.80469 -0.021887001 0.24314
0.79679 -0.017781001 0.24538
0.80754 -0.0019453 0.22606
0.79228997 0.0010492 0.23356999
0.81090999 -0.020269999 0.23006
0.79833001 -0.010586 0.23954
0.80567998 -0.041586 0.24440999
0.81536001 -0.060144 0.24984001
0.82832998 0.057712 0.18434
0.82740003 0.015239 0.20621
0.84214997 0.032228 0.18111999
0.82876003 0.039193001 0.18756001
0.84893 0.018499 0.18546
0.83187997 0.021382 0.19372
0.86264002 0.051325999 0.16140001
0.86449999 0.077556998 0.14811
0.88651001 0.055314999 0.14291
0.86878997 0.060219999 0.15121999
0.8423 0.075797997 0.16075
0.83437002 0.062454 0.17202
0.85153002 0.082639001 0.15459999
0.83609003 0.087518997 0.15852
0.85044003 0.065825 0.15910999
0.86677003 0.038364999 0.16523001
0.88541001 0.013662 0.16399001
0.87146997 0.020323999 0.17068
0.88823998 0.038630001 0.14714
0.87489998 0.042247999 0.15597001
0.89073002 0.02128 0.15246999
0.87913001 0.026417 0.15961
0.84948999 0.040727001 0.1733
0.83757001 0.046261001 0.17817999
0.85451001 0.023793999 0.17794
0.78489 0.077899002 0.20341
0.80136001 0.053323001 0.20093
0.78911 0.059211001 0.20845
0.80812001 0.078176998 0.18356
0.79338998 0.081065997 0.19295
0.80980998 0.060070999 0.19114999
0.80747002 0.037641 0.20957001
0.79462999 0.046411999 0.21246
0.81238002 0.022218 0.21166
0.79685003 0.023492999 0.21866
0.81454998 0.042199001 0.19657999
0.81941003 0.069762997 0.17942999
0.87090999 -0.0045890999 0.18499
0.88533998 -0.027333001 0.18195
0.86985999 -0.020174 0.18886
0.84198999 -0.0049867998 0.20514999
0.83170003 0.0022783999 0.20767
0.8459 -0.021048 0.20705999
0.82962 -0.021087 0.21563999
0.8488 0.00074560998 0.19159999
0.83846998 0.0067751999 0.19848
0.85275 -0.017782999 0.19753
0.86502999 -0.043908 0.20328
0.88217998 -0.064176001 0.20326
0.87243003 -0.060314 0.21054
0.88696998 -0.041230001 0.18686999
0.87164003 -0.037376001 0.19519
0.89393002 -0.058842 0.19371
0.87795001 -0.052607 0.19935
0.85062999 -0.039384998 0.2113
0.83361 -0.032962002 0.21867999
0.85112 -0.055379 0.21630999
0.85828 -0.031006999 0.19925
0.88815999 -0.00073397002 0.16801
0.87445998 0.0029096 0.17639001
0.89069003 -0.018674999 0.17273
0.8987 0.0061824 0.15876
0.89714003 -0.037902001 0.17837
0.89977002 -0.050586998 0.17957
0.90596002 0.19622999 0.061746001
0.92198998 0.17671999 0.062867001
0.90964001 0.17941 0.067477003
0.90428001 0.11766 0.10303
0.9059 0.098650999 0.10587
0.94239998 0.13601001 0.061338
0.90309 0.1541 0.082957998
0.92150003 0.13332 0.083369002
0.90878999 0.1398 0.087707996
0.92426997 0.15892 0.064410001
0.90878999 0.15927 0.073376
0.92925 0.13913999 0.069514997
0.91474998 0.14506 0.076324999
0.94274002 0.091499001 0.081795998
0.94714999 0.11812 0.065240003
0.96600002 0.096087001 0.064113997
0.94977999 0.099893004 0.070483997
0.92352003 0.11954 0.085124999
0.91294003 0.12052 0.094613001
0.92704999 0.099252999 0.088688999
0.91417998 0.10101 0.097953998
0.93251002 0.12159 0.073982
1.0015 0.23168001 -0.019421
0.98855001 0.23287 -0.015467
1.0038 0.22137 -0.018746
0.99049997 0.21890999 -0.010685
1.025 0.17814 -0.014894
1.0015 0.17200001 0.0013969
0.98912001 0.17885 0.0072863
1.0113 0.18079001 -0.0077757002
0.99379998 0.1859 -0.0033950999
0.94247001 0.23149 0.021429
0.94551998 0.21855 0.024068
0.90513003 0.23767 0.043531999
0.92075998 0.21435 0.042054001
0.90982997 0.22014 0.04823
0.92650998 0.23873 0.026326001
0.91329002 0.24164 0.035354
0.92809999 0.22044 0.032820001
0.91702002 0.22735 0.038524002
0.94199997 0.19176 0.041664999
0.94401002 0.17761999 0.043063998
0.94598001 0.19777 0.027478
0.96794999 0.17738999 0.025118001
0.95085001 0.18178999 0.033197001
0.92881 0.19736999 0.047702
0.91298002 0.20295 0.053886
0.93264002 0.18049 0.052496001
0.91622001 0.18974 0.059687
0.93295002 0.20297 0.035386
0.96139002 0.23241 0.0013411
0.94910002 0.23853 0.0081839003
0.96679002 0.21819 0.0041684001
0.95178998 0.2208 0.013357
0.96877998 0.23985 -0.0091514001
0.95850003 0.24450999 -0.00037122
0.97487003 0.22236 -0.0026389
0.93528003 0.24222 0.015902
0.96928 0.19855 0.008959
0.95550001 0.20336001 0.016988
0.97460002 0.18302 0.014547
0.97911 0.20096 8.8410998e-06
0.98602003 0.15587001 0.022802001
1.0033 0.13226999 0.021699
0.98991001 0.13907 0.026684999
1.0227 0.095471002 0.022927999
0.98302001 0.11555 0.042082999
1.0007 0.090741001 0.040226001
0.98680001 0.097994998 0.044537
1.0077 0.11758 0.024834
0.99056 0.12094 0.033567
1.0105 0.099830002 0.029754
0.99453998 0.10298 0.037503999
1.0027 0.15887 0.0029608
0.99150002 0.16013999 0.01246
1.0081 0.13854 0.0089130998
0.99607998 0.14494 0.015868001
1.0256 0.11631 0.0074979998
1.0318 0.10036 0.011414
1.0157 0.12326 0.013437
1.0192 0.10654 0.019783
0.94865 0.15895 0.047012001
0.96560001 0.13416 0.04276
0.94948 0.14046 0.051139999
0.97027999 0.16067 0.030572999
0.95624 0.16278 0.038771
0.97051001 0.14157 0.035563
0.95868999 0.14738999 0.039866999
0.9332 0.16136999 0.055966999
0.93921 0.14843 0.058841001
0.96965998 0.11924 0.048728
0.97363001 0.10092 0.053355999
0.9594 0.1096 0.059841
0.97837001 0.12849 0.038424999
0.97960001 0.16847999 0.018563
0.82488 0.23560999 0.10505
0.84318 0.21355 0.10186
0.82648998 0.22025999 0.10545
0.86184001 0.1733 0.10113
0.82190001 0.19677 0.12166
0.82467997 0.17874999 0.12402
0.84478998 0.19828001 0.10421
0.82933998 0.19972 0.11221
0.84741002 0.1802 0.10664
0.83495998 0.17948 0.11653
0.8646 0.2181 0.082092002
0.88091999 0.23187 0.061050002
0.86844999 0.23952 0.068090998
0.88413 0.21641 0.065320998
0.87203002 0.22189 0.072640002
0.84491003 0.23594999 0.084567003
0.83156002 0.24096 0.092185996
0.84767002 0.21932 0.090089001
0.83468997 0.22439 0.097273
0.85216999 0.2423 0.076861002
0.88178003 0.19361 0.081069
0.86764997 0.19825 0.087494999
0.88546997 0.17765 0.083988003
0.87076002 0.1804 0.092885002
0.88927001 0.20023 0.070299998
0.87579 0.20601 0.078290001
0.89216 0.18189 0.074537002
0.85355002 0.20273 0.094867997
0.85775 0.18588001 0.099466003
0.78820997 0.23876999 0.1266
0.80874997 0.21596999 0.12371
0.79108 0.22031 0.13153
0.81081998 0.24097 0.10891
0.79666001 0.24145 0.11613
0.81316 0.22002999 0.11499
0.79916 0.22548001 0.11894
0.77315998 0.24037001 0.13583
0.77512997 0.2263 0.13865
0.80925 0.19983 0.12805
0.79351997 0.20100001 0.13649
0.80982 0.18066999 0.13282999
0.79905999 0.18873 0.13925999
0.81748998 0.20694999 0.11607
0.81770003 0.24804001 0.099101998
0.86220998 0.13109 0.12449
0.86672002 0.16126999 0.10576
0.88617998 0.13941 0.10493
0.86856002 0.13839 0.1128
0.84691 0.15372001 0.12263
0.83177 0.1601 0.12996
0.85040998 0.13896 0.12794
0.83455998 0.1425 0.13564999
0.85168999 0.15989 0.11338
0.86491001 0.1203 0.12488
0.88226002 0.096532002 0.12191
0.86925 0.099775001 0.13064
0.89003003 0.11988 0.10963
0.87257999 0.12227 0.11682
0.88988 0.10118 0.11499
0.85462999 0.11999 0.13461
0.83947998 0.12964 0.13962001
0.85856003 0.10713 0.13595
0.89059001 0.15983 0.090540998
0.87414998 0.16618 0.097285002
0.89407003 0.14109001 0.096280001
0.89740002 0.16574 0.077215999
0.89977002 0.12815 0.099349998
0.8168 0.16665 0.13598999
0.88888001 0.24074 0.051922999
0.87628001 0.24679001 0.058247998
0.89315999 0.22121 0.056841001
0.89607 0.20853999 0.059615999
0.98404002 0.070919998 0.061960999
0.98872 0.058773998 0.064940996
1.0221 0.012297 0.063571997
0.98312002 0.032776002 0.080904998
1.0024 0.011868 0.081660002
0.9896 0.017346 0.085202999
0.99177003 0.039939001 0.070312001
1.0098 0.019113 0.069228999
0.99564999 0.026108 0.075217001
0.94211 0.057665002 0.1008
0.90384001 0.074198 0.12276
0.90609002 0.058552001 0.12758
0.92579001 0.075560004 0.10387
0.90979999 0.080724999 0.11117
0.92995 0.058966 0.10677
0.91259998 0.061244 0.11547
0.94599003 0.015028 0.12259
0.94770998 0.037987001 0.10599
0.96408999 0.015938999 0.10521
0.95195001 0.022092 0.11261
0.92287999 0.034715001 0.12403
0.90938002 0.041182999 0.13174
0.92793 0.019358 0.12903
0.9131 0.024236999 0.13654
0.93080002 0.041737001 0.11449
0.91881001 0.047665 0.1197
0.93598998 0.028448001 0.11891
0.94665003 0.078760996 0.086433001
0.96508002 0.057034999 0.083195001
0.94950998 0.060915999 0.092109002
0.96878999 0.079053998 0.068680003
0.95570999 0.083322003 0.077022001
0.97201997 0.060986999 0.074331999
0.93318999 0.081906997 0.095448002
0.91881001 0.087137997 0.099330001
0.93866998 0.069509 0.099523999
0.96657002 0.038490999 0.087127
0.95366001 0.042525001 0.095472001
0.97153997 0.021181 0.093138002
0.9594 0.029826 0.099064998
0.97724003 0.045864999 0.077969998
0.98108 -0.0089299995 0.10334
1.0022 -0.029957 0.10071
0.98824 -0.022419 0.10605
1.0211 -0.068726003 0.10048
0.98364002 -0.044585999 0.12158
0.98966998 -0.061691999 0.1249
1.0069 -0.042234 0.10416
0.99144 -0.039434999 0.11302
1.0116 -0.060662001 0.1073
0.99563003 -0.058001999 0.11682
1.0224 -0.024537999 0.081478
1.0405999 -0.0065877 0.060580999
1.0276999 -0.001304 0.065200999
1.0461 -0.023021 0.06549
1.0301 -0.018867999 0.073133998
1.0077 -0.0015816001 0.083793998
0.99024999 -0.00032516001 0.091712996
1.0111001 -0.020669 0.088615999
0.99338001 -0.015683999 0.096056998
1.0165 0.0012797 0.074822001
1.0195 -0.011964 0.077432998
1.0405999 -0.048122998 0.08106
1.028 -0.041200999 0.085252002
1.0474 -0.062414002 0.084307
1.0292 -0.059266001 0.092665002
1.0474 -0.040369 0.070378996
1.0377001 -0.034672 0.078220002
1.053 -0.055059999 0.073792003
1.0152 -0.038180001 0.094485998
1.0188 -0.055787001 0.098595001
0.94849002 -0.0013953 0.12401
0.96328002 -0.023692001 0.12596001
0.95287001 -0.019067001 0.13271999
0.96841002 -0.00058786001 0.10837
0.95556998 0.0025257999 0.11761
0.97254002 -0.017728999 0.11408
0.9594 -0.012057 0.11967
0.92948002 0.00053809001 0.13328999
0.91881001 0.0094638001 0.14008
0.93252999 -0.013037 0.13672
0.96696001 -0.039751001 0.12974
0.95793003 -0.038451999 0.13877
0.96820003 -0.059060998 0.13379
0.9594 -0.055048 0.13940001
0.97580999 -0.031422 0.11766
0.97538 0.0031542 0.097521
1.023 0.050799999 0.042257
1.0415 0.070625 0.020215999
1.0264 0.078120001 0.025139
1.0434 0.057324 0.023754001
1.0315 0.060368001 0.030787
1.0038 0.078814998 0.042082001
0.99154001 0.079072997 0.050673999
0.99633998 0.061547 0.055250999
1.0127 0.081329003 0.034205001
1.0405999 0.032832 0.040872
1.0298001 0.038876001 0.045717001
1.0462 0.01802 0.043733001
1.0292 0.01935 0.051321998
1.0469 0.040525999 0.029485
1.0358 0.044608001 0.037838999
1.0538 0.024871999 0.037273001
1.0118001 0.040755 0.054963
0.99913001 0.046293002 0.059549998
1.0512 0.060523 0.014919
1.0554 0.045972001 0.018011
1.0497 8.7387998e-05 0.049800999
1.035 0.0032209 0.057553999
1.0524 -0.016457999 0.056798
0.88827002 0.079159997 0.12801
0.89112997 0.062867001 0.13569
0.87706 0.067984 0.13979
0.89428997 0.086776003 0.11783
0.89977002 0.043683998 0.13967
0.71798003 0.15512 0.22228999
0.72314 0.13756999 0.22308999
0.71877003 0.14496 0.22302
0.72795999 0.12738 0.22257
0.70748001 0.24041 0.18976
0.71043003 0.22109 0.19214
0.71625 0.18276 0.20875999
0.71060002 0.20255999 0.19474
0.73817003 0.23216 0.16113
0.71408999 0.15925001 0.21507999
0.72180003 0.14042 0.21795
1.3814 -0.36243001 -0.018653
1.3862 -0.38196 -0.0121
1.061 -0.20963 0.14117
1.0644 -0.22401001 0.14467999
1.0649 -0.36531001 0.22194999
1.0681 -0.38143 0.22368
1.0671999 -0.30168 0.18695
1.1026 -0.26201999 0.14445999
1.061 -0.2383 0.16028
1.0674 -0.26350999 0.16467001
1.0868 -0.24448 0.14594001
1.0686001 -0.23741999 0.15058
1.0723 -0.25756001 0.15752
1.1026 -0.30774999 0.16287
1.1076 -0.28004 0.14768
1.1081001 -0.29949999 0.15311
1.0851001 -0.28213 0.16433001
1.0719 -0.27952999 0.17269
1.0885 -0.29967001 0.16933
1.076 -0.29628 0.17742001
1.094 -0.27904999 0.15683
1.0973001 -0.29609001 0.15797
1.1449 -0.32311001 0.14207
1.1619 -0.34764999 0.14117999
1.149 -0.34156001 0.14674
1.1832 -0.38722 0.14244001
1.1429 -0.36796001 0.16156
1.1612 -0.38793999 0.16174001
1.1497999 -0.38169 0.16536
1.1648999 -0.36203 0.14515001
1.1517 -0.35846999 0.15363
1.169 -0.37983 0.15002
1.1568 -0.37456 0.15821999
1.102 -0.34794 0.18176
1.0681 -0.3398 0.20737
1.0852 -0.32337999 0.18234
1.0725 -0.31973001 0.19159999
1.0887001 -0.34051999 0.18724
1.0757999 -0.33798999 0.19574
1.1015 -0.3858 0.20189001
1.1212 -0.36708 0.18026
1.1077 -0.36188 0.18562999
1.1251 -0.3847 0.18357
1.1087 -0.37941 0.19091
1.0869 -0.36438 0.20577
1.0721 -0.35922 0.21223
1.0896 -0.38040999 0.20957001
1.0754 -0.37432 0.21754
1.0932 -0.35885 0.19408
1.0785 -0.35111001 0.19831
1.0973001 -0.37243 0.19652
1.1072 -0.32135001 0.16813
1.1267 -0.34198999 0.16424
1.1097 -0.33982 0.17302001
1.1296999 -0.32014999 0.14928
1.1136 -0.31606999 0.15647
1.1346 -0.33772001 0.15476
1.0944999 -0.31884 0.17682999
1.0975 -0.33502999 0.1788
1.1289001 -0.36072001 0.16796
1.1144 -0.35530001 0.17512
1.1332 -0.37847999 0.17438
1.1193 -0.37162 0.17995
1.1386 -0.35593 0.15915
1.2222 -0.14917 0.0017048999
1.2269 -0.122 -0.01619
1.2289 -0.14123 -0.011516
1.2244 -0.20251 0.02176
1.2408 -0.22882999 0.020647001
1.2280999 -0.22091 0.025535
1.2625 -0.16896001 -0.019235
1.2649 -0.18155999 -0.017201999
1.2258 -0.16309001 0.0029221999
1.2299 -0.18178 0.0078405002
1.2460001 -0.16285001 -0.014092
1.2331001 -0.15786999 -0.0057492
1.2494 -0.17983 -0.0075782002
1.2374001 -0.17494 -0.00037024001
1.2654001 -0.22322001 0.0038519001
1.2693 -0.20148 -0.012895
1.2838 -0.22526 -0.016156999
1.2747999 -0.21877 -0.0081019998
1.245 -0.20189001 0.0051016002
1.2331001 -0.19907001 0.013578
1.249 -0.2193 0.010276
1.2352 -0.21594 0.017128
1.2556 -0.19736999 -0.0033853999
1.064 -0.12544 0.10249
1.0658 -0.14135 0.10532
1.1016999 -0.10536 0.06213
1.062 -0.086202003 0.081694998
1.0671999 -0.10169 0.086567998
1.0853 -0.087113999 0.063098997
1.0699 -0.079327002 0.071230002
1.0894001 -0.101 0.069197997
1.0747 -0.095780998 0.076673999
1.1022 -0.14560001 0.082874
1.122 -0.12808 0.060963999
1.1083 -0.1222 0.065122001
1.1253999 -0.14147 0.065301001
1.1109999 -0.13987 0.074428998
1.0833 -0.12294 0.083291002
1.0711 -0.11919 0.091946997
1.0898 -0.14013 0.088527001
1.0754 -0.13819 0.096902996
1.0917 -0.11862 0.073968001
1.0967 -0.13208 0.078537002
1.1437 -0.16411 0.062780999
1.1619 -0.1877 0.061198998
1.1495 -0.18084 0.067789003
1.1826 -0.22734 0.061586
1.163 -0.20183 0.062701002
1.1514 -0.19968 0.071091004
1.1683 -0.22051001 0.064819001
1.1042 -0.18572 0.10192
1.063 -0.16473 0.1222
1.0803 -0.18875 0.12128
1.0696 -0.18134999 0.12664001
1.084 -0.16479 0.10488
1.0713 -0.15884 0.11229
1.0888 -0.18047 0.10924
1.0757 -0.17597 0.1174
1.1004 -0.22961999 0.12049
1.1073 -0.20122001 0.10546
1.0842 -0.20100001 0.12314
1.0696 -0.20018999 0.13222
1.0895 -0.22154 0.1259
1.0721 -0.21842 0.13494
1.0951999 -0.19957 0.11528
1.097 -0.21720999 0.11667
1.1063 -0.15984 0.084679998
1.1262 -0.18279999 0.083581001
1.109 -0.17976999 0.091338001
1.1299 -0.15958001 0.071078002
1.1162 -0.15723 0.078787997
1.1332 -0.17805 0.076958999
1.0907 -0.16001 0.094382003
1.0762 -0.15198 0.099437997
1.0967 -0.17305 0.095904998
1.1291 -0.20034 0.086631998
1.1174999 -0.20009001 0.096534997
1.1382999 -0.20054001 0.078488998
1.1437 -0.083325997 0.021319
1.1628 -0.10674 0.022034001
1.1489 -0.10189 0.027198
1.1826 -0.14721 0.023774
1.1447999 -0.12529001 0.042527001
1.1623 -0.14648999 0.040881999
1.1496 -0.14083999 0.046179
1.1652 -0.12158 0.024615999
1.1523 -0.11929 0.033842001
1.1674 -0.13984001 0.029782001
1.1574 -0.13420001 0.037703
1.1833 -0.10689 0.0053542
1.1887 -0.081772 -0.014337
1.2069 -0.10526 -0.015729999
1.1916 -0.099641003 -0.0081816996
1.1636 -0.083228 0.0049100001
1.1529 -0.078695998 0.013322
1.1686 -0.099692002 0.010481
1.1552 -0.094351999 0.017182
1.1697 -0.077794999 -0.0049254
1.1759 -0.092675 -0.0012943
1.1887 -0.12048 0.0077328999
1.2091 -0.14334001 0.0051589999
1.1911 -0.13947 0.012409
1.2093 -0.12062 -0.0089085
1.1963 -0.11721 -0.0029253
1.2149 -0.13609999 -0.0029223
1.1997 -0.13063 1.0833e-05
1.174 -0.11981 0.017127
1.1747 -0.13441999 0.018265
1.1036 -0.081931002 0.045658
1.1262 -0.10443 0.044558
1.1089 -0.09922 0.052161999
1.1289999 -0.080043003 0.027814999
1.1118 -0.078891002 0.036807999
1.1339999 -0.097649001 0.034152001
1.092 -0.078628004 0.054343
1.0782 -0.072871 0.05948
1.0983 -0.092701003 0.058359001
1.1291 -0.12002 0.049667001
1.1141 -0.11484 0.057133
1.1325001 -0.13822 0.055252001
1.1389 -0.11375 0.039469
1.1842999 -0.18503 0.043116
1.1889 -0.16116001 0.029859999
1.207 -0.18367 0.024220999
1.1932 -0.17833 0.032889999
1.1675 -0.16178 0.046379
1.1538 -0.15879001 0.055169001
1.168 -0.17955001 0.05026
1.1576 -0.17569999 0.058102999
1.174 -0.1525 0.035664
1.1899 -0.20157 0.046560999
1.2043 -0.22438 0.042645
1.1913 -0.22021 0.051105998
1.21 -0.2005 0.029743001
1.1982 -0.19758999 0.037648998
1.2115999 -0.21828 0.034768999
1.1997 -0.21127 0.039083
1.1708 -0.19870999 0.056045
1.1746 -0.21254 0.057998002
1.2102 -0.16113 0.0094985999
1.1964 -0.15697999 0.016298
1.2124 -0.17625999 0.015769999
1.1997 -0.17053001 0.019962
1.2199 -0.19031 0.018608
1.1382 -0.15128 0.059425998
1.2264 -0.28303999 0.063208997
1.2273999 -0.30114001 0.067896001
1.2421 -0.38639 0.10272
1.2297 -0.38065001 0.10814
1.2640001 -0.34652999 0.064167
1.226 -0.32532001 0.082323
1.2297 -0.34060001 0.089272
1.2437 -0.32552999 0.065041997
1.2325 -0.31823 0.072121002
1.2522 -0.33924001 0.070730999
1.2375 -0.33164001 0.077531002
1.2654001 -0.38466001 0.083497003
1.2678 -0.36039001 0.070300996
1.2835 -0.38482001 0.062268998
1.2732 -0.37885001 0.070945002
1.2489001 -0.36083001 0.085357003
1.2333 -0.35892999 0.094949998
1.2502 -0.37887999 0.091697
1.3031 -0.24434 -0.018048
1.3039 -0.26227999 -0.01306
1.3404 -0.28898999 -0.018564001
1.3467 -0.30215001 -0.015526
1.3024 -0.28321001 0.0056306999
1.307 -0.30048001 0.010077
1.3262 -0.28409001 -0.014985
1.3102 -0.27908999 -0.0069622002
1.3291 -0.30026001 -0.0085431999
1.3152 -0.29813999 -0.0023161001
1.2653 -0.26143 0.022273
1.2253 -0.24549 0.041708
1.2292 -0.26174 0.046936002
1.2471 -0.24291 0.025674
1.2323 -0.23841 0.032786999
1.2496001 -0.26003999 0.030818
1.2364 -0.25666001 0.038373001
1.2649 -0.30296001 0.042741001
1.2851 -0.28619 0.022768
1.2693 -0.28117999 0.028661
1.2736 -0.29864001 0.034619
1.2442 -0.28253001 0.045903001
1.2338001 -0.27851 0.054021001
1.2499 -0.29934999 0.050156001
1.2367001 -0.29896 0.058396
1.2542 -0.27647999 0.035503998
1.2823 -0.24626 0.0031216
1.2726001 -0.24081001 0.0090488
1.2864 -0.26113001 0.0063576
1.2735 -0.25834 0.015478
1.2884001 -0.24026 -0.0092281001
1.2782 -0.23259 -0.0027276999
1.2936 -0.25775 -0.0052116001
1.255 -0.23509 0.016790999
1.2925 -0.27904999 0.012083
1.2766 -0.27412 0.018185001
1.3003 -0.34790999 0.041457999
1.3044 -0.32201001 0.025189999
1.3214 -0.34715 0.020156
1.3095 -0.34055001 0.029056
1.3457 -0.38189 0.022891
1.3241 -0.38657001 0.042213999
1.3094 -0.37937999 0.047687002
1.3257 -0.36238 0.02699
1.3147 -0.35677001 0.034504
1.3281 -0.37922001 0.032225002
1.3178 -0.37117001 0.037145998
1.3418 -0.34693 0.0023361
1.3493 -0.32009 -0.014222
1.3667001 -0.34417999 -0.017171999
1.3506 -0.33991 -0.0091858003
1.3219 -0.32604 0.0031258001
1.3131 -0.31922999 0.01178
1.3268 -0.34018001 0.0088192998
1.316 -0.33623999 0.017271001
1.3293 -0.31995001 -0.0040507
1.3187 -0.31172001 1.1907e-05
1.334 -0.33429 -0.0018386
1.349 -0.36166999 0.0085621001
1.368 -0.38174 0.0059142001
1.3548 -0.38005 0.01436
1.3688 -0.36140999 -0.010308
1.3562 -0.35482001 -0.0039860001
1.3738 -0.37604001 -0.0042586001
1.3328 -0.35646001 0.016439
1.2833 -0.32613999 0.040918998
1.2715 -0.32056999 0.047003999
1.2875 -0.34176999 0.044615
1.2722 -0.33897001 0.053096998
1.2904 -0.31942999 0.033628002
1.2786 -0.31228 0.037811998
1.2934 -0.33612001 0.037650999
1.2513 -0.31863001 0.056042001
1.2385 -0.31248999 0.060084
1.2586 -0.33274001 0.058966
1.2902 -0.35960999 0.052561998
1.2769001 -0.35979 0.058293
1.2912 -0.37924001 0.056492001
1.2773 -0.37097999 0.059312001
1.1612 -0.26966 0.1014
1.1459 -0.26402 0.10669
1.1834 -0.30743 0.10469
1.1625 -0.30726001 0.1227
1.1663001 -0.28279999 0.10643
1.1529 -0.27755001 0.11364
1.1694 -0.29890001 0.11065
1.1583 -0.29389 0.118
1.1831 -0.26519999 0.081093997
1.1874 -0.24155 0.064511999
1.2072999 -0.26212001 0.063206002
1.191 -0.26041999 0.071753003
1.1626 -0.24591 0.082690999
1.1490999 -0.24084 0.088010997
1.1688 -0.26104999 0.087365001
1.1507 -0.25720999 0.095522001
1.1701 -0.23982 0.072504997
1.1755 -0.25343001 0.077550001
1.1889 -0.28184 0.088583
1.2068 -0.30147001 0.083322003
1.1919 -0.29945999 0.093062997
1.2108999 -0.28083 0.070277996
1.1966 -0.27632999 0.076397002
1.2149 -0.29666001 0.076350003
1.1736 -0.27695 0.096648
1.178 -0.29587999 0.099597
1.1232001 -0.24992999 0.12142
1.1065 -0.24247 0.12717
1.1263 -0.26207 0.12461
1.112 -0.25937 0.13395
1.1278 -0.24275 0.10709
1.1121 -0.23608001 0.11397
1.1343 -0.25746 0.11303
1.0927 -0.23751 0.1338
1.0768 -0.23214 0.13767
1.1301 -0.27875 0.13107
1.1160001 -0.27307999 0.13707
1.1384 -0.27304 0.11873
1.1839 -0.34413001 0.12279
1.2026 -0.32874 0.10362
1.1896 -0.32104999 0.10944
1.2079 -0.34088001 0.10474
1.194 -0.33862001 0.11422
1.1672 -0.32189 0.12495
1.1526 -0.31839001 0.13412
1.1694 -0.33985999 0.13022
1.1575 -0.33658001 0.1375
1.1742001 -0.31386 0.11604
1.1900001 -0.36131001 0.12762
1.2074 -0.38080999 0.1249
1.1913 -0.37948 0.13428
1.2097 -0.35922 0.11162
1.1982 -0.35313001 0.11823
1.2153 -0.37684 0.11582
1.1731 -0.35811999 0.13614
1.1766 -0.37461001 0.13916001
1.2096 -0.32082 0.088734999
1.1966 -0.31529 0.095174998
1.2155 -0.33539 0.095418997
1.2091 -0.24115001 0.047357999
1.1964 -0.23784 0.055461999
1.2129 -0.25705001 0.055318002
1.2176 -0.23214 0.037978999
1.3853 -0.54500002 0.067501999
1.3857 -0.44317001 0.023974
1.4014 -0.46724001 0.022348
1.3901 -0.46108001 0.028677
1.3831 -0.40935999 0.0019293
1.4019001 -0.42789999 0.0026028
1.3885 -0.42221999 0.0087494003
1.4055001 -0.403 -0.014305
1.3904999 -0.39825001 -0.0051158001
1.4105 -0.42106 -0.010955
1.3954 -0.41466001 -0.0010938999
1.4058 -0.44198999 0.0068047
1.3937 -0.43784001 0.015246
1.4099 -0.46024001 0.010261
1.3979 -0.45346999 0.01874
1.4164 -0.44051999 -0.0099783
1.3832999 -0.48168999 0.042939998
1.3879 -0.50082999 0.045793999
1.404 -0.48199001 0.024883
1.393 -0.47891 0.033750001
1.4071 -0.50058001 0.028275
1.3959 -0.49783 0.037229002
1.4245 -0.54597002 0.041469
1.4253 -0.5244 0.024928
1.4421 -0.54354 0.023461999
1.4325 -0.53987002 0.031184999
1.4017 -0.52414 0.040807001
1.3892 -0.51921999 0.046964001
1.4069 -0.54174 0.046721999
1.3918 -0.53694999 0.053348999
1.4111 -0.51796001 0.031663999
1.3979 -0.51063001 0.038759999
1.4162 -0.53397 0.038283002
1.4241 -0.48453999 0.0045755999
1.4143 -0.47869 0.012362
1.4328001 -0.51942003 0.01431
1.4069999 -0.56156999 0.064000003
1.3908 -0.55619001 0.07096
1.4162 -0.57159001 0.061507002
1.4311 -0.56263 0.048744
1.4437 -0.57792997 0.044482999
1.4324 -0.57514 0.053706001
1.4452 -0.56002003 0.030160001
1.4381 -0.55268002 0.037381001
1.4515001 -0.57867998 0.029345
1.4158 -0.55869001 0.055546001
1.4193 -0.57349002 0.059020001
1.2279 -0.46441999 0.1459
1.2645 -0.50375998 0.14196
1.225 -0.48710999 0.16286001
1.2460999 -0.48280999 0.14425001
1.2314 -0.47924 0.153
1.2507 -0.49842 0.14783999
1.2363 -0.49529001 0.15593
1.2649 -0.51068997 0.14157
1.1028 -0.42381001 0.22239
1.064 -0.40533 0.24160001
1.0669 -0.42092001 0.24346
1.0862 -0.40211001 0.22434001
1.0707 -0.39956 0.23339
1.0904 -0.41995001 0.22951999
1.0750999 -0.41648 0.23687001
1.1036 -0.43889999 0.22547001
1.0821 -0.43531001 0.24146
1.0743999 -0.43255001 0.24523
1.1451 -0.40461999 0.18243
1.1812 -0.46830001 0.18089999
1.1446 -0.44345999 0.20085
1.15 -0.45985001 0.20397
1.1689 -0.46021 0.18931
1.1561 -0.45636001 0.19821
1.2027 -0.40786999 0.14149
1.1878999 -0.40024999 0.14726999
1.2067 -0.42214999 0.14568999
1.1653 -0.40186 0.16407
1.1517 -0.39998999 0.1728
1.1676 -0.4206 0.17062999
1.1576 -0.41578001 0.17678
1.1714 -0.39658001 0.15583999
1.2019 -0.44817999 0.16158
1.1901 -0.44108 0.16669001
1.2049 -0.46241999 0.16423
1.1908 -0.46015999 0.17295
1.2059 -0.44016999 0.14791
1.1985 -0.43720001 0.15640999
1.2122999 -0.45743999 0.15316001
1.1738 -0.43911999 0.17603
1.1769 -0.45372 0.17845
1.1052999 -0.40127 0.20517001
1.1243 -0.42370999 0.20451
1.1122 -0.41975999 0.21283001
1.1294 -0.40061 0.18973
1.1164 -0.39827999 0.19724999
1.1329 -0.41663 0.19379
1.0942 -0.39783001 0.21382
1.0985 -0.41192001 0.21873
1.1285 -0.43968001 0.20635
1.1125 -0.43876001 0.21546
1.131 -0.45401999 0.21128
1.1184 -0.45111999 0.21777
1.1375999 -0.43075001 0.19916999
1.1384 -0.39215001 0.17868
1.1835001 -0.47573 0.18385001
1.1734 -0.47211 0.19134
1.2108999 -0.47966999 0.16771001
1.1938 -0.47621 0.1759
1.2184 -0.49175999 0.16943
1.2185 -0.47211999 0.15841
1.3216 -0.42535001 0.062590003
1.3214 -0.46847001 0.081045002
1.3091 -0.4605 0.088408999
1.323 -0.43887001 0.062288001
1.3137 -0.44034001 0.072249003
1.327 -0.4628 0.068287998
1.3174 -0.45497 0.072795004
1.2408 -0.42745 0.12039
1.2295001 -0.42017999 0.12791
1.2457 -0.40015 0.10355
1.2326 -0.39912 0.11327
1.2496001 -0.41971001 0.1124
1.2368 -0.41429999 0.1184
1.2644 -0.46368 0.12297
1.2823 -0.44885999 0.10131
1.2854 -0.46169999 0.10281
1.2736 -0.45949 0.11256
1.2465 -0.44231001 0.12245
1.2298 -0.43869999 0.12846
1.2503 -0.46044001 0.12977
1.2315 -0.45637 0.13647
1.2575999 -0.45065001 0.11853
1.2836 -0.40594 0.081396997
1.2893 -0.39941999 0.071686
1.2786 -0.39414001 0.077574
1.2798001 -0.43821999 0.099160999
1.2925 -0.45809999 0.097857997
1.3017 -0.48591 0.10284
1.3087 -0.50081998 0.10857
1.3435 -0.53868002 0.10192
1.3041 -0.52306002 0.12263
1.3124 -0.52002001 0.11478
1.3278 -0.53375 0.10806
1.318 -0.53166997 0.116
1.3444 -0.48308 0.068600997
1.364 -0.50541002 0.061824001
1.3548 -0.49987999 0.070779003
1.3264 -0.48144001 0.083953999
1.3097 -0.47858 0.093033001
1.318 -0.49193999 0.096364997
1.3336999 -0.47571999 0.073448002
1.3472 -0.52028 0.089813001
1.3645999 -0.54514998 0.084514
1.3546 -0.53869998 0.091752999
1.3664 -0.52164 0.065471999
1.3572 -0.51836002 0.074340999
1.3708 -0.53833002 0.071797997
1.3591 -0.53252 0.077234
1.2703 -0.48199999 0.12782
1.2842 -0.505 0.12311
1.2726001 -0.49917001 0.13125999
1.2882 -0.47966 0.10831
1.2769001 -0.47593001 0.11616
1.2905999 -0.49726999 0.11544
1.2798001 -0.49320999 0.11885
1.255 -0.47701001 0.13676
1.26 -0.49169001 0.13970999
1.2912 -0.51560998 0.12475
1.2739 -0.51283997 0.13248999
1.2977 -0.47310999 0.098026
1.3417 -0.42014 0.042071
1.3484 -0.40057999 0.026938001
1.3667001 -0.42287999 0.022938
1.3504 -0.41905999 0.032357998
1.312 -0.39877 0.054951001
1.3297 -0.42016 0.050843999
1.3183 -0.41420001 0.057693001
1.3358001 -0.39721999 0.035448998
1.3628 -0.44870001 0.041563999
1.3473001 -0.44088 0.04606
1.3693 -0.46191001 0.045062002
1.3494999 -0.46041 0.053238999
1.3688 -0.44134 0.031438999
1.3564 -0.43636 0.036261
1.3745 -0.45653999 0.036775
1.3314 -0.43873999 0.054995999
1.3358001 -0.45750001 0.058842
1.3695 -0.39954999 0.0072007999
1.3572 -0.39927 0.016347
1.3732001 -0.41615 0.014692
1.3707 -0.47936001 0.049392
1.3526 -0.47911999 0.057043999
1.3691 -0.50010002 0.055190001
1.36 -0.493 0.057812002
1.1967 -0.39460999 0.13744999
1.2145 -0.42061999 0.13699
1.2134 -0.43706 0.13598
1.3692 -0.55263001 0.086025998
1.3733 -0.55304998 0.078047
0.96698999 -0.38306001 0.30175
0.92010999 -0.14992 0.22060999
0.90618998 -0.14202 0.22622
0.90512002 -0.22482 0.26493999
0.94339001 -0.18798 0.22351
0.90289998 -0.16690999 0.24276
0.90592003 -0.18061 0.24367
0.92372 -0.16372 0.22582
0.91175002 -0.15888999 0.23216
0.92804998 -0.18017 0.22972
0.91599 -0.17851 0.23834001
0.94247001 -0.21991 0.2406
0.94531 -0.20132001 0.22724
0.96415001 -0.22222 0.22321001
0.94836998 -0.21962 0.23218
0.92438 -0.20417 0.24372
0.90994 -0.19968 0.25029999
0.92853999 -0.22058 0.24605
0.91131997 -0.21894 0.2545
0.93255001 -0.19745 0.23583999
0.91733003 -0.19233 0.23955999
0.93940997 -0.22313 0.23932
0.98365003 -0.087447003 0.14300001
0.98772001 -0.10072 0.14567
1.0225 -0.14695001 0.14199001
0.98237997 -0.12594 0.16279
0.9878 -0.14094999 0.16676
1.0046 -0.12337 0.14393
0.98931003 -0.11993 0.15172
1.0105 -0.14125 0.14869
0.99333 -0.13597 0.15565
0.94224 -0.10658 0.18227001
0.90227002 -0.088491 0.20083
0.92010999 -0.10614 0.20205
0.90979999 -0.10219 0.20688
0.92387003 -0.083182998 0.18434
0.90796 -0.079536997 0.19045
0.92698002 -0.10083 0.18895
0.91424 -0.095469996 0.19647001
0.94384003 -0.14613 0.20209999
0.94560999 -0.12087 0.18292999
0.96451998 -0.14341 0.18561999
0.95108002 -0.13948999 0.19204
0.92216998 -0.12127 0.20203
0.90858001 -0.11985 0.20952
0.92864001 -0.14089 0.20671
0.91084999 -0.1383 0.21479
0.92913002 -0.11945 0.19196001
0.91881001 -0.12042 0.19993
0.93642998 -0.13423 0.19604
0.94607002 -0.084027 0.16329999
0.96402001 -0.103 0.16253
0.94928998 -0.10054 0.17045
0.96833998 -0.080900997 0.14826
0.95319998 -0.077055 0.15575001
0.97306001 -0.099480003 0.15522
0.95798999 -0.091035001 0.15933
0.93120998 -0.079164997 0.17169
0.93559998 -0.094746001 0.17721
0.97083998 -0.12093 0.16669001
0.95226002 -0.11792 0.17452
0.97091001 -0.13865 0.176
0.9594 -0.13106 0.17951
0.97667003 -0.1124 0.15716
0.98711997 -0.18414 0.18637
1.0233999 -0.22653 0.18190999
0.98484999 -0.22363999 0.20567
1.0051 -0.20672999 0.18151
0.98895001 -0.19973999 0.18944
1.0112 -0.22076 0.18630999
0.99116999 -0.21887 0.19478001
1.0222 -0.18564001 0.16178
1.0412 -0.16915999 0.14094
1.0283 -0.16171999 0.14585
1.0427999 -0.18242 0.14297
1.0307 -0.17914 0.15208
1.0087 -0.16665 0.16322
0.99000001 -0.15944 0.16979
1.0118001 -0.18057001 0.16776
0.99247998 -0.17843001 0.17579
1.0132 -0.15812001 0.15468
0.99913001 -0.15102001 0.15925001
1.0185 -0.17329 0.15838
1.0235 -0.20095 0.16366
1.0453 -0.22571 0.16309001
1.0290999 -0.21952 0.17064001
1.0492001 -0.20073 0.14816999
1.0333 -0.19854 0.1577
1.0523 -0.21799 0.1523
1.038 -0.21199 0.15910999
1.013 -0.19955 0.17304
0.99772 -0.19383 0.17859
1.0181 -0.21213999 0.17617001
0.94558001 -0.16125 0.2043
0.96641999 -0.18494 0.2035
0.94849998 -0.18072 0.20988999
0.96801001 -0.16013999 0.18736
0.95394999 -0.15956999 0.19706
0.97271001 -0.17767 0.19269
0.95712 -0.17236 0.19864
0.93059999 -0.15966 0.21357
0.93590999 -0.1745 0.2157
0.96864003 -0.20104 0.20621
0.95200998 -0.19794001 0.21475001
0.97319001 -0.21905001 0.21394999
0.97627997 -0.20022 0.19869
0.97763997 -0.21077999 0.19918001
0.97689998 -0.15835001 0.17816
0.83244997 -0.10628 0.26047999
0.86247998 -0.14501999 0.26115
0.84259999 -0.12534 0.2615
0.83625001 -0.11772 0.26137
0.85106999 -0.14029001 0.26339
0.86207002 -0.1084 0.24113999
0.88080001 -0.089557998 0.22240999
0.86698002 -0.083995998 0.22391
0.88308001 -0.10015 0.22262999
0.87041003 -0.10134 0.23029
0.84385002 -0.082145996 0.24299
0.82821 -0.080293998 0.24794
0.84864998 -0.10108 0.24569
0.83332002 -0.099202998 0.25413999
0.85093999 -0.079319999 0.23205
0.85244 -0.096341997 0.23593
0.86497003 -0.12238 0.24368
0.88213998 -0.14775001 0.24329001
0.8696 -0.14029001 0.25023001
0.89019001 -0.12142 0.22543
0.87229002 -0.11938 0.23406
0.89004999 -0.14026 0.2335
0.85049999 -0.1194 0.25159001
0.83652002 -0.11365 0.25791001
0.85396999 -0.13332 0.25725001
0.81825 -0.077197 0.25351
0.86668003 -0.16204999 0.26398
0.88402998 -0.18756001 0.26230001
0.87023997 -0.17910001 0.26620001
0.85558999 -0.15565 0.26576999
0.88739002 -0.20092 0.26648
0.87567002 -0.19695 0.27224001
0.89095002 -0.21888 0.27077001
0.87834001 -0.21128 0.27511001
0.88856 -0.16026001 0.24774
0.87380999 -0.15887 0.25606
0.89003998 -0.17935 0.25227001
0.87658 -0.17523 0.25845
0.89552999 -0.15527 0.2369
0.89719999 -0.19981 0.25745001
0.88758999 -0.081832998 0.20653
0.87217999 -0.077109002 0.21450999
0.89025998 -0.098035999 0.21417999
0.89441001 -0.074914001 0.19694
0.85790002 -0.073201001 0.21996
0.89715999 -0.11804 0.21861
0.89977002 -0.13039 0.21947999
0.98108 -0.24890999 0.22026999
0.98771 -0.26245001 0.22584
1.0218 -0.30645999 0.22211
0.98255998 -0.28944999 0.24102999
0.98881 -0.30250001 0.24564999
1.0059 -0.28483 0.22352999
0.99068999 -0.27922001 0.23011
1.0113 -0.30061999 0.22747
0.99387002 -0.29791999 0.23553
0.94161999 -0.26464999 0.26168999
0.90101999 -0.24753 0.2818
0.90693003 -0.26221001 0.28218001
0.92412001 -0.24398001 0.26284
0.90913999 -0.24005 0.27008
0.92905003 -0.26122001 0.26640001
0.91317999 -0.25810999 0.27533999
0.94229001 -0.30544999 0.28077999
0.94327003 -0.28503001 0.26381999
0.96494001 -0.3037 0.26288
0.94866002 -0.30061999 0.27122
0.92510998 -0.28595999 0.28219
0.91400999 -0.27772999 0.2834
0.93197 -0.30083999 0.28558001
0.93182999 -0.27838999 0.27112001
0.91772997 -0.27226001 0.27897
0.93877 -0.29405001 0.27789
0.94536 -0.24615 0.24349999
0.96351999 -0.26346001 0.24276
0.94887 -0.26113001 0.25009
0.96683002 -0.24074 0.22651
0.95152998 -0.23891 0.23532
0.97031999 -0.25944 0.23444
0.9594 -0.25071999 0.23401999
0.93131 -0.23898 0.25082001
0.91665 -0.23151 0.25768
0.93769002 -0.25494999 0.25554001
0.93967998 -0.2332 0.23963
0.96683002 -0.28171 0.24615
0.95109999 -0.27794999 0.25486001
0.97191 -0.29969999 0.25398999
0.95798999 -0.29107001 0.25889999
0.97382998 -0.27739999 0.23729999
0.98352998 -0.34645 0.26778999
1.0211 -0.38782999 0.26038
0.98760998 -0.38079 0.28542
1.0048 -0.36651 0.26128
0.98846 -0.35978001 0.27070001
1.0089999 -0.38238999 0.2676
0.99529999 -0.37643999 0.27467
1.0225 -0.34817001 0.2419
1.0405999 -0.32964 0.22066
1.025 -0.32216999 0.22537
1.0432 -0.34232 0.22156
1.0290999 -0.33992001 0.22901
1.0039999 -0.32385999 0.24158999
0.99146998 -0.32027999 0.24841
1.0089999 -0.34066999 0.24618
0.99080998 -0.33801001 0.25468001
1.0137 -0.31876001 0.23442
0.99861997 -0.31172001 0.23851
1.0172 -0.33676001 0.23703
1.0264 -0.36263001 0.24698
1.0426 -0.38400999 0.24291
1.0302 -0.37992999 0.25094
1.0477 -0.36169001 0.22642
1.0333 -0.35859999 0.23495001
1.0499001 -0.37908 0.23177999
1.0366 -0.37219 0.23728999
1.0128 -0.35802999 0.25364
0.99436003 -0.35363001 0.25782999
1.0165 -0.37654999 0.25781
0.94701999 -0.32359001 0.2841
0.96907002 -0.34602001 0.28251001
0.95055002 -0.34013 0.28862
0.96616 -0.32111001 0.26629001
0.95225 -0.31775001 0.27458999
0.97356999 -0.33724999 0.27054
0.95747 -0.33215001 0.27833
0.93276 -0.31714001 0.28731
0.93948001 -0.33197001 0.29322001
0.96978998 -0.36041999 0.28665999
0.95304 -0.35834 0.2933
0.97132999 -0.37983 0.29429001
0.95771003 -0.37079999 0.29730999
0.97378999 -0.31744999 0.25654
0.97960001 -0.33610001 0.25931001
1.0239 -0.24123999 0.18401
1.0432 -0.26554 0.18261001
1.0283 -0.26107001 0.18844
1.0032001 -0.24549 0.20110001
0.99019998 -0.24065 0.20875999
1.0075999 -0.26256999 0.20478
0.99501997 -0.25792 0.21287
1.0132 -0.24022 0.19315
0.99559999 -0.23345999 0.19803999
1.0164 -0.25692999 0.19576
1.0267 -0.28286999 0.20424999
1.0451 -0.30294999 0.2054
1.0294 -0.30039001 0.21308
1.0484999 -0.28040999 0.18806
1.0312999 -0.27801001 0.19524001
1.0512 -0.29655999 0.19482
1.039 -0.29023001 0.19799
1.011 -0.27847999 0.21180999
0.99836999 -0.27127999 0.21723001
1.0173 -0.29413 0.21697
1.0469 -0.24037001 0.16678999
1.0339 -0.23942 0.17678
1.0499001 -0.25926 0.17191
1.0369 -0.2538 0.17779
1.0571001 -0.24002001 0.15778001
1.0592 -0.25038999 0.16001999
1.0569 -0.27217001 0.17724
0.97404999 -0.23646 0.21698
1.0319 -0.31661999 0.21746001
1.0518 -0.33998001 0.21653999
1.0556 -0.35286 0.21672
0.89761001 -0.24406999 0.28068
0.89977002 -0.25009999 0.28119999
0.89538002 -0.23664001 0.27713001
0.89977002 -0.25009999 0.27932999
1.0219001 -0.10667 0.12039
1.0427001 -0.087707996 0.1017
1.0266 -0.082739003 0.105
1.0454 -0.10036 0.10246
1.029 -0.099978998 0.11202
1.0068001 -0.082230002 0.12577
0.99145001 -0.079967 0.13285001
1.0124 -0.10015 0.12611
0.99438 -0.099532001 0.13557
1.0135 -0.078294002 0.11291
1.0187 -0.092565 0.1193
1.044 -0.12689 0.12173
1.0275 -0.12185 0.124
1.0452 -0.14203 0.12406
1.0296 -0.14065 0.13191999
1.05 -0.12095 0.10992
1.0338 -0.11363 0.11531
1.0536 -0.13847999 0.11438
1.0112 -0.11939 0.13225
0.99847001 -0.11188 0.13799
1.0164 -0.13382 0.13569
1.0499001 -0.080784 0.089038
1.0326999 -0.074818 0.096583001
1.0556 -0.098435 0.095452003
1.0562 -0.11281 0.099549003
1.049 -0.16057999 0.12932999
1.0353 -0.15581 0.13687
1.0508 -0.17844 0.13539
1.0592 -0.15106 0.11843
1.0561 -0.19619 0.13882001
1.0272 -0.40239 0.26492
1.0328 -0.41472 0.26629999
1.0031 -0.39987999 0.28112999
0.99110001 -0.39576 0.28654
1.0118999 -0.39862999 0.27397999
1.0185 -0.41099 0.27581999
1.0470001 -0.40147999 0.24731
1.0347 -0.39756 0.25466001
1.048 -0.41677001 0.25152001
1.0386 -0.41246 0.25872999
1.0541 -0.39087999 0.23813
0.97706002 -0.39272001 0.29530001
1.061 0.29030001 -0.098504998
1.0639 0.25323001 -0.076838002
1.0803 0.27537999 -0.098805003
1.0674 0.27827001 -0.093749002
1.0832 0.25253999 -0.097170003
1.0698 0.25990999 -0.089276999
1.1438 0.33471999 -0.17259
1.0662 0.37549999 -0.1357
1.0692 0.35975999 -0.13034
1.1059 0.39363 -0.17495
1.0857 0.39096001 -0.15798
1.0749 0.38240001 -0.14514001
1.0951999 0.39307001 -0.1655
1.0962 0.38730001 -0.16340999
1.105 0.35773 -0.15523
1.0777 0.36691001 -0.14105
1.1434 0.25848001 -0.13806
1.1409 0.31057999 -0.15967999
1.1454 0.29782999 -0.15710001
1.1474 0.31935999 -0.17256001
1.1636 0.29624 -0.17456999
1.1533 0.30267999 -0.16772
1.1832 0.27812999 -0.17842001
1.2019 0.25141001 -0.17987999
1.1901 0.25773999 -0.17421
1.1612 0.27307001 -0.15891001
1.1508 0.27792001 -0.15231
1.1626 0.25729001 -0.15631001
1.1545 0.26089001 -0.14772999
1.1682 0.27976999 -0.17037
1.1569 0.28299001 -0.16227999
1.1687 0.26176 -0.1656
1.1042 0.31858 -0.13643999
1.1089 0.29909 -0.13123
1.0891 0.29852 -0.11534
1.0687 0.30070999 -0.10602
1.0947 0.30340999 -0.12402
1.1034 0.27851999 -0.11722
1.1221 0.25439 -0.1183
1.1093 0.25999999 -0.11414
1.1262 0.27939001 -0.13592
1.113 0.28005001 -0.12574001
1.1294 0.25883001 -0.12871
1.115 0.26666 -0.12383
1.0888 0.27886 -0.10873
1.0733 0.2845 -0.10331
1.0896 0.25935999 -0.10517
1.0776 0.26486 -0.10154
1.1312 0.30063 -0.14771999
1.1382 0.32063001 -0.16323
1.1335 0.28273001 -0.14470001
1.2222 0.42673001 -0.27947
1.2408 0.44656 -0.29877999
1.2344 0.43827 -0.2906
1.2410001 0.44260001 -0.30631
1.2029001 0.41766 -0.25747001
1.178 0.41701001 -0.23998
1.2097 0.41909 -0.26890001
1.2234 0.35084 -0.23904
1.227 0.34003001 -0.23646
1.2269 0.35598999 -0.25228
1.2308 0.33961999 -0.2498
1.2264 0.29791999 -0.21706
1.2262 0.25939 -0.19765
1.2422 0.27447999 -0.21777
1.23 0.28029999 -0.21016
1.2418 0.25749999 -0.21294001
1.2356 0.26120999 -0.20745
1.2259001 0.31646001 -0.23141
1.2341 0.30030999 -0.23026
1.2448 0.27590001 -0.23024
1.2361 0.28498 -0.22906999
1.1801 0.37088001 -0.2186
1.1446 0.37753999 -0.19575
1.163 0.39747 -0.21738
1.151 0.39952001 -0.20931
1.1662 0.37911001 -0.21304999
1.1549 0.38350001 -0.20437001
1.1864001 0.35767999 -0.21561
1.1901 0.33924001 -0.21326999
1.1482 0.36057001 -0.19456001
1.166 0.33276001 -0.19746999
1.1672 0.36238 -0.20782
1.1583 0.36092001 -0.20107999
1.1725 0.33972001 -0.20384
1.1854 0.39840999 -0.23721001
1.1868 0.37810001 -0.23365
1.2043 0.39886999 -0.25656
1.1959 0.40057001 -0.24676999
1.1973 0.37968999 -0.24544001
1.1682 0.40026999 -0.22676
1.174 0.38115001 -0.22469001
1.2057 0.35639 -0.23601
1.1921 0.36186001 -0.22769
1.2099 0.33976999 -0.22861999
1.197 0.34356001 -0.22319999
1.2112 0.3637 -0.24878
1.178 0.36884001 -0.22528
1.115 0.39839 -0.18340001
1.1364 0.40292999 -0.20290001
1.1365 0.36067 -0.18455
1.2029999 0.29221001 -0.19867
1.1885999 0.29861 -0.19447
1.2067 0.31698 -0.21704
1.1889 0.32082999 -0.20861
1.2091 0.29776999 -0.20905
1.1937 0.30322 -0.20421
1.1694 0.31952 -0.19341999
1.1545 0.32115999 -0.18403
1.1694 0.30175 -0.18668
1.1587 0.30667999 -0.18126
1.1775 0.31639001 -0.20107
1.2095 0.27948001 -0.19521999
1.1912 0.28073999 -0.18545
1.2085 0.25938001 -0.1885
1.197 0.2665 -0.18271001
1.2161 0.2863 -0.20355
1.1759 0.28915 -0.18129
1.2157 0.32001999 -0.22837999
1.1997 0.32743001 -0.22112
1.2241 0.17151 -0.15832999
1.2258 0.19762 -0.17566
1.2474999 0.17708001 -0.17674001
1.2304 0.18062 -0.16872001
1.2241 0.13221 -0.13854
1.2276 0.11933 -0.13473
1.2302001 0.098645002 -0.13225
1.2646 0.15772 -0.17799
1.2647001 0.14024 -0.17718001
1.2247 0.15874 -0.15672
1.2431 0.13387001 -0.15638
1.2302999 0.13988 -0.15019999
1.2501 0.15872 -0.17204
1.2326 0.16080999 -0.16449
1.2524 0.13946 -0.16746999
1.2367001 0.14814 -0.16153
1.2661999 0.093269996 -0.15606999
1.2445 0.11926 -0.15493
1.2371 0.12048 -0.14499
1.2379 0.10328 -0.14120001
1.1422 0.17111 -0.099188998
1.0662 0.19788 -0.054356001
1.0805 0.17674001 -0.058989
1.0711 0.17994 -0.051109999
1.1004 0.23094 -0.098352998
1.1044 0.21943 -0.094921999
1.068 0.23890001 -0.071736999
1.0822001 0.21616 -0.078100003
1.0692 0.22017001 -0.069533996
1.0901999 0.2396 -0.091495
1.0743001 0.24398001 -0.082549997
1.0915 0.22098 -0.085418001
1.1023999 0.19442999 -0.078927003
1.1082 0.17901 -0.074529998
1.1259 0.19583 -0.095450997
1.1099 0.20118 -0.088983998
1.13 0.17936 -0.090704001
1.1157 0.18605 -0.081937999
1.0888 0.19952001 -0.074730001
1.0729001 0.20116 -0.065605998
1.0893 0.18035001 -0.066127002
1.0769 0.1877 -0.063170999
1.0954 0.20519 -0.081973001
1.146 0.15724 -0.097237997
1.1616 0.13404 -0.098185003
1.15 0.13959999 -0.092055999
1.1801 0.11029 -0.099756002
1.1831 0.096578002 -0.095912002
1.1446 0.11495 -0.076442003
1.1629 0.095394 -0.076517999
1.151 0.1006 -0.070671
1.1663001 0.1182 -0.093245
1.153 0.12223 -0.085121997
1.1712 0.10115 -0.087736003
1.1581 0.10903 -0.080239996
1.102 0.13719 -0.059044
1.064 0.15313999 -0.038959
1.0719 0.16069999 -0.048021998
1.0898 0.14 -0.051837999
1.1026 0.097860999 -0.038132001
1.1243 0.11495 -0.057282999
1.1073 0.11969 -0.053047001
1.1279 0.098431997 -0.054453
1.1106 0.1012 -0.045178998
1.091 0.099119 -0.031319
1.0971 0.10861 -0.041425001
1.1243 0.15785 -0.076626003
1.1097 0.15989 -0.069320999
1.1296 0.13945 -0.073509
1.1097 0.14117 -0.064130001
1.1317 0.1604 -0.088050999
1.1362 0.14286 -0.083070002
1.0899 0.16124 -0.062569998
1.1317 0.12034 -0.069201998
1.1144 0.12567 -0.062403001
1.1361001 0.10297 -0.063294001
1.1384 0.12768 -0.080449998
1.1442 0.21373001 -0.11756
1.1612 0.23162 -0.13839
1.1502 0.23875999 -0.13296001
1.1647 0.21775 -0.13586
1.1523 0.22065 -0.12637
1.1809 0.19761001 -0.13835
1.1864001 0.17835 -0.13251001
1.1626 0.19377001 -0.11895
1.1494 0.19914 -0.11431
1.1659 0.17708001 -0.11591
1.1503 0.18010999 -0.10813
1.1705 0.19960999 -0.1296
1.1582 0.2075 -0.12358
1.1734999 0.1829 -0.12445
1.1837 0.23338 -0.15802
1.1882 0.21773 -0.15276
1.2045 0.23702 -0.17744
1.1927 0.2402 -0.16841
1.2078 0.21857999 -0.17251
1.1964 0.22221 -0.16353001
1.1665 0.23932999 -0.15062
1.1571 0.24498001 -0.14341
1.1712 0.22299001 -0.14477
1.1767 0.24728 -0.16144
1.2034 0.1971 -0.15801001
1.1908 0.20057 -0.14896999
1.2095 0.17914 -0.15388
1.1945 0.18167999 -0.14469001
1.2118 0.20132001 -0.16678999
1.1997 0.20855001 -0.16125999
1.2179 0.1846 -0.16192
1.178 0.19661 -0.14120001
1.125 0.23759 -0.11622
1.1092 0.2401 -0.10765
1.1296999 0.22019 -0.11249
1.1138999 0.22057 -0.10356
1.1339999 0.24268 -0.12414
1.0972 0.24405 -0.10085
1.1321 0.20096 -0.10521
1.1174001 0.20919999 -0.10116
1.1373 0.18592 -0.10244
1.1837 0.15677001 -0.11701
1.1869 0.13905001 -0.11506
1.2019 0.15063 -0.13823999
1.1933 0.15998 -0.12980001
1.2074 0.13872001 -0.13237999
1.1971 0.14315 -0.12452
1.1697 0.16109 -0.11079
1.1548001 0.16131 -0.10246
1.1691 0.13891999 -0.10542
1.1578 0.14563 -0.10174
1.1914999 0.11914 -0.11129
1.207 0.097466998 -0.11672
1.1921 0.10029 -0.10712
1.2104 0.12043 -0.12495
1.1997 0.12874 -0.12136
1.2126 0.10259 -0.12312
1.1739 0.12452 -0.10267
1.2112 0.16018 -0.1469
1.1975 0.16833 -0.14188001
1.2144001 0.1454 -0.14341
1.2237 0.035441998 -0.097223997
1.242 0.014082 -0.098531
1.2296 0.018906999 -0.093053997
1.2248 -0.041861001 -0.057346001
1.2416 -0.0678 -0.057920001
1.2292 -0.060258001 -0.053263001
1.2625 -0.0097415997 -0.099716999
1.2647001 -0.022414001 -0.096923001
1.2273 -0.0031126 -0.075859003
1.2413 -0.024718 -0.078433998
1.2313 -0.020594001 -0.070298001
1.2467999 -0.0026531999 -0.094577
1.2335 0.0014515 -0.086119004
1.2486 -0.019833 -0.087898001
1.2381001 -0.012986 -0.081491001
1.2643 -0.065921001 -0.076789998
1.2687 -0.040916 -0.093534
1.2854 -0.063810997 -0.096454002
1.2729 -0.059342001 -0.088490002
1.2448 -0.040663 -0.076549999
1.2343 -0.039469998 -0.066946998
1.2492 -0.060433 -0.069613002
1.2368 -0.055255 -0.063267
1.2551 -0.038734 -0.084201999
1.2589999 -0.052988999 -0.080952004
1.2671 0.054857001 -0.13502
1.2276 0.076358996 -0.11671
1.2438 0.055450998 -0.11739
1.2314 0.059755001 -0.11098
1.2342 0.081771001 -0.12749
1.2507 0.061974999 -0.12843999
1.2376 0.066559002 -0.12155
1.2668 0.015888 -0.11659
1.2823 0.034534998 -0.13754
1.2718 0.039609998 -0.1311
1.2849 0.018898999 -0.13594
1.2749 0.021156 -0.12650999
1.2458 0.038727999 -0.11611
1.2323999 0.040096 -0.10658
1.2495 0.019952999 -0.10844
1.2359999 0.026644001 -0.10298
1.2563 0.042610999 -0.12212
1.2695 0.079227 -0.15328
1.2754 0.060557 -0.14842001
1.2542 0.080794998 -0.14351
1.2790999 0.045504998 -0.14442
1.3008 -0.028786 -0.11789
1.3028001 -0.0070134001 -0.13492
1.3081 -0.020675 -0.13143
1.3056 -0.040927999 -0.11593
1.3214 -0.068796001 -0.11902
1.3107001 -0.061478999 -0.11178
1.3155 -0.038547002 -0.12949
1.3178999 -0.055192001 -0.12254
1.2823 -0.0081179002 -0.11906
1.2703 -0.00078974001 -0.11113
1.288 -0.021891 -0.11453
1.2732 -0.01881 -0.10571
1.2884001 0.00056801998 -0.13003001
1.2783999 0.0061675999 -0.12286
1.2929 -0.015597 -0.12278
1.257 0.0042332001 -0.10242
1.2897 -0.040424999 -0.10815
1.2774 -0.038881 -0.10198
1.2908 -0.057078999 -0.10308
1.1465 0.075240001 -0.055369001
1.1633 0.051477998 -0.059638999
1.1496 0.059599999 -0.053734001
1.1801 0.030964 -0.058867998
1.1841 0.016342999 -0.057098001
1.1435 0.032536 -0.037866998
1.1627001 0.01419 -0.03638
1.1504 0.019129001 -0.030003
1.1683 0.037105002 -0.054792002
1.1499 0.041186001 -0.047449
1.1698 0.020072 -0.048121002
1.1572 0.027287999 -0.041556001
1.1823 0.071162999 -0.078636996
1.189 0.057498001 -0.073863998
1.2031 0.073344998 -0.097441003
1.1905 0.079742998 -0.090920001
1.2069 0.058688 -0.094516002
1.1962 0.061276 -0.085132003
1.1688 0.079547003 -0.073273003
1.1522 0.081555001 -0.063506
1.1693 0.062422998 -0.066321
1.1583 0.066914 -0.061595
1.1763 0.084169 -0.083049998
1.1923 0.039535001 -0.070451997
1.2061 0.016546 -0.075949997
1.1942 0.021001 -0.067376003
1.2098 0.040217999 -0.089528002
1.1995 0.045464002 -0.082415998
1.2127 0.022748999 -0.084550001
1.1747 0.044838 -0.060587998
1.1229 0.072701 -0.038228001
1.1081001 0.077104002 -0.033778999
1.127 0.057840999 -0.034809999
1.1104 0.060973 -0.026481001
1.1312 0.081090003 -0.048767999
1.1148 0.085288003 -0.041361999
1.1357 0.061278 -0.043873999
1.0978 0.066651002 -0.021862
1.1306 0.039774999 -0.029903
1.1144 0.046884 -0.021393999
1.1354001 0.02468 -0.023959
1.1377 0.046720002 -0.042560998
1.1389 0.085911997 -0.059967
1.1817 -0.0083002001 -0.038477998
1.1861 -0.021413 -0.037799001
1.2026 -0.0087248003 -0.057769001
1.1902 -0.00083941 -0.051410001
1.2074 -0.022565 -0.054745
1.1950001 -0.018214 -0.046259999
1.1666 -0.00076463999 -0.034086
1.1513 0.0010381 -0.024687
1.168 -0.020368 -0.029154001
1.1553 -0.015623 -0.022705
1.1753 0.0046823998 -0.043184999
1.1895 -0.041095 -0.032324001
1.2061 -0.063450001 -0.034352001
1.1941 -0.05762 -0.026929
1.2103 -0.040709998 -0.048388999
1.1987 -0.035277002 -0.042516001
1.2130001 -0.058568999 -0.043637
1.1727999 -0.035489999 -0.024545999
1.2094001 0.00036934001 -0.068226002
1.1983 0.0054044002 -0.062996998
1.2156 -0.015858 -0.061971001
1.2092 0.079040997 -0.10832
1.1977 0.085764997 -0.10469
