# .PCD v0.7 - Point Cloud Data file format
VERSION 0.7
FIELDS x y z
SIZE 4 4 4
TYPE F F F
COUNT 1 1 1
WIDTH 1529
HEIGHT 1
VIEWPOINT 0 0 0 1 0 0 0
POINTS 1529
DATA ascii
-0.85477 -0.67828 -1.1891
-0.85263002 -0.67894 -1.1902
-0.84943998 -0.67874002 -1.1899
-0.84833002 -0.68023998 -1.1925
-0.83885002 -0.67729998 -1.1873
-0.83456999 -0.67857999 -1.1896
-0.83293998 -0.67964 -1.1914001
-0.78217 -0.67532003 -1.1839
-0.77759999 -0.67374998 -1.1811
-0.77450001 -0.67347997 -1.1806
-0.77043998 -0.67233002 -1.1786
-0.76687002 -0.67161 -1.1774
-0.7482 -0.67717999 -1.1871001
-0.74317002 -0.68018001 -1.1924
-0.74056 -0.6803 -1.1926
-0.73702002 -0.67953998 -1.1913
-0.73487997 -0.68009001 -1.1921999
-0.73272997 -0.68063998 -1.1932
-0.72355002 -0.67962998 -1.1914001
-0.72004002 -0.67885 -1.1900001
-0.71789998 -0.67939001 -1.191
-0.71574998 -0.67992002 -1.1919
-0.71271002 -0.67957002 -1.1913
-0.71056002 -0.68010002 -1.1921999
-0.70063001 -0.68087 -1.1936001
-0.69848001 -0.68138999 -1.1945
-0.69589001 -0.68146998 -1.1946
-0.69112998 -0.67931002 -1.1909
-0.68812001 -0.67892998 -1.1902
-0.68554002 -0.67899001 -1.1903
-0.68339002 -0.67949998 -1.1912
-0.68081999 -0.67956001 -1.1913
-0.67824 -0.67961001 -1.1914001
-0.67137998 -0.68067002 -1.1932
-0.66754001 -0.67935997 -1.191
-0.66540003 -0.67986 -1.1918
-0.66325003 -0.68035001 -1.1927
-0.66026998 -0.67992997 -1.192
-0.65728998 -0.67952001 -1.1912
-0.65513998 -0.68000001 -1.1921
-0.65341002 -0.68093997 -1.1937
-0.65125 -0.68142003 -1.1946
-0.63431001 -0.67971998 -1.1916
-0.63176 -0.67973 -1.1916
-0.62922001 -0.67973 -1.1916
-0.62628001 -0.67927998 -1.1908
-0.62492001 -0.68065 -1.1932
-0.62238002 -0.68065 -1.1932
-0.62062001 -0.68155998 -1.1948
-0.61690998 -0.68019003 -1.1924
-0.60639 -0.67967999 -1.1914999
-0.60386002 -0.67966002 -1.1914999
-0.60096002 -0.67918003 -1.1906
-0.59274 -0.68137002 -1.1945
-0.58947003 -0.68041998 -1.1928
-0.58695 -0.68037999 -1.1927
-0.58443999 -0.68035001 -1.1927
-0.58265001 -0.68123001 -1.1942
-0.57977003 -0.68071997 -1.1933
-0.57726002 -0.68067998 -1.1933
-0.57437998 -0.68017 -1.1924
-0.57222998 -0.68058002 -1.1931
-0.56936997 -0.68006998 -1.1921999
-0.55075997 -0.68141001 -1.1945
-0.54508001 -0.68032998 -1.1927
-0.54224998 -0.67979002 -1.1917
-0.54044998 -0.68063998 -1.1932
-0.53728002 -0.67962003 -1.1914001
-0.52653998 -0.68150002 -1.1947
-0.51942998 -0.68167001 -1.1950001
-0.47791001 -0.68004 -1.1921
-0.46630001 -0.68023998 -1.1925
-0.46171001 -0.68040001 -1.1928
-0.45956001 -0.68071002 -1.1933
-0.41767001 -0.6803 -1.1926
-0.41602001 -0.68154001 -1.1948
-0.40858001 -0.68043 -1.1928
-0.40716001 -0.68213999 -1.1957999
-0.40404001 -0.68049002 -1.1928999
-0.40237001 -0.68171 -1.1950999
-0.39351001 -0.68226999 -1.1961
-0.39136001 -0.68252999 -1.1964999
-0.38828 -0.68085003 -1.1936001
-0.38589999 -0.68062001 -1.1932
-0.38374999 -0.68087 -1.1936001
-0.38159999 -0.68111998 -1.194
-0.35942 -0.68203002 -1.1956
-0.35686001 -0.68128997 -1.1943001
-0.33923 -0.68204999 -1.1957
-0.33473 -0.68198001 -1.1955
-0.32789999 -0.68162 -1.1949
-0.32323 -0.68103999 -1.1939
-0.32089999 -0.68075001 -1.1934
-0.31874999 -0.68093997 -1.1937
-0.29196 -0.68017 -1.1924
-0.27847001 -0.67918998 -1.1906
-0.27017 -0.68077999 -1.1934
-0.19648001 -0.68282002 -1.197
-0.19225 -0.68348002 -1.1982
-0.060430001 -0.68155998 -1.1948
-0.95468003 -0.67913997 -1.1914999
-0.95196998 -0.67947 -1.1921
-0.94924998 -0.67979997 -1.1927
-0.94709998 -0.68054003 -1.1939
-0.94268 -0.67964 -1.1924
-0.93658 -0.67751002 -1.1885999
-0.93330997 -0.67741001 -1.1885
-0.93061 -0.67773002 -1.189
-0.93071002 -0.68009001 -1.1932
-0.92688 -0.67957002 -1.1923
-0.92417002 -0.67988002 -1.1928
-0.91979998 -0.67895001 -1.1912
-0.91764998 -0.67966002 -1.1924
-0.91439998 -0.67953998 -1.1921999
-0.91170001 -0.67983001 -1.1927
-0.90789998 -0.67930001 -1.1918
-0.90191001 -0.6771 -1.1878999
-0.89434999 -0.676 -1.186
-0.88578999 -0.67874002 -1.1908
-0.88257003 -0.67859 -1.1905
-0.87935001 -0.67843002 -1.1903
-0.87774003 -0.67952001 -1.1921999
-0.87131 -0.67918998 -1.1916
-0.86862999 -0.67944002 -1.192
-0.86488998 -0.67885 -1.191
-0.86168998 -0.67866999 -1.1907001
-0.85901999 -0.67891002 -1.1911
-0.85529 -0.67830002 -1.1900001
-0.85263002 -0.67852998 -1.1904
-0.84996003 -0.67875999 -1.1908
-0.84780997 -0.67940998 -1.192
-0.84359002 -0.67837 -1.1901
-0.84144002 -0.67900997 -1.1913
-0.83508998 -0.67860001 -1.1906
-0.83293998 -0.67923999 -1.1917
-0.78364003 -0.67622 -1.1864001
-0.77858001 -0.67422003 -1.1829
-0.77547997 -0.67394 -1.1824
-0.77188998 -0.67322999 -1.1811
-0.76832002 -0.67251003 -1.1799001
-0.74866003 -0.67721999 -1.1881
-0.74624997 -0.68009001 -1.1932
-0.74317002 -0.67978001 -1.1926
-0.74102002 -0.68032998 -1.1936001
-0.73979002 -0.68177003 -1.1961
-0.73672003 -0.68144 -1.1955
-0.73364002 -0.68111998 -1.1950001
-0.73057997 -0.68077999 -1.1944
-0.72797 -0.68089002 -1.1946
-0.72491002 -0.68054998 -1.194
-0.72276002 -0.68109 -1.1949
-0.71925002 -0.68031001 -1.1935
-0.71619999 -0.67996001 -1.1928999
-0.71315002 -0.67961001 -1.1923
-0.71144998 -0.68058002 -1.194
-0.71063 -0.68243998 -1.1973
-0.69931 -0.67913997 -1.1914999
-0.69673002 -0.67921001 -1.1916
-0.69414997 -0.67927998 -1.1917
-0.69112998 -0.67891002 -1.1911
-0.68855 -0.67896998 -1.1912
-0.6864 -0.67948002 -1.1921
-0.68511999 -0.68088001 -1.1946
-0.68252999 -0.68093997 -1.1947
-0.67909998 -0.68010998 -1.1932
-0.67396998 -0.67747003 -1.1885999
-0.67268002 -0.67887002 -1.191
-0.67053002 -0.67935997 -1.1919
-0.6688 -0.68031001 -1.1935
-0.66665 -0.68080002 -1.1944
-0.66408002 -0.68084002 -1.1945
-0.66193002 -0.68133003 -1.1953
-0.65811998 -0.68001997 -1.193
-0.65513998 -0.6796 -1.1923
-0.65298998 -0.68008 -1.1931
-0.65083998 -0.68055999 -1.194
-0.64653999 -0.68150997 -1.1957
-0.63431001 -0.67931002 -1.1918
-0.63135999 -0.67887002 -1.191
-0.62746 -0.68023998 -1.1934
-0.62571001 -0.68115997 -1.1950001
-0.62316 -0.68115997 -1.1950001
-0.61984003 -0.68023998 -1.1934
-0.61729997 -0.68023998 -1.1934
-0.60639 -0.67927998 -1.1917
-0.60424 -0.67971998 -1.1925
-0.60209 -0.68014997 -1.1933
-0.59881002 -0.67921001 -1.1916
-0.59516001 -0.67781001 -1.1892
-0.59198999 -0.68005002 -1.1931
-0.5891 -0.67954999 -1.1921999
-0.58228999 -0.68036002 -1.1936001
-0.57867998 -0.67894 -1.1911
-0.57511002 -0.68068999 -1.1942
-0.57295001 -0.68110001 -1.1949
-0.57043999 -0.68105 -1.1948
-0.56757998 -0.68053001 -1.1939
-0.56115001 -0.67856002 -1.1905
-0.55901003 -0.67896003 -1.1912
-0.55075997 -0.68101001 -1.1948
-0.54860997 -0.6814 -1.1955
-0.54508001 -0.67992997 -1.1928999
-0.54224998 -0.67938 -1.1919
-0.54010999 -0.67976999 -1.1926
-0.53762001 -0.67967999 -1.1925
-0.53479999 -0.67913002 -1.1914999
-0.52621001 -0.68063003 -1.1941
-0.52406001 -0.68099999 -1.1948
-0.52092999 -0.67996001 -1.1928999
-0.51630998 -0.68022001 -1.1934
-0.47516999 -0.67900997 -1.1913
-0.47059 -0.67918998 -1.1916
-0.45956001 -0.68031001 -1.1935
-0.4461 -0.68120003 -1.1950999
-0.44395 -0.68150002 -1.1956
-0.43316001 -0.68298 -1.1982
-0.42058 -0.68105 -1.1949
-0.41767001 -0.67989999 -1.1928
-0.40832999 -0.67954999 -1.1921999
-0.40619001 -0.67982 -1.1927
-0.40404001 -0.68008 -1.1932
-0.39351001 -0.68186998 -1.1963
-0.39159 -0.68260998 -1.1976
-0.38896999 -0.68190002 -1.1963
-0.38589999 -0.68022001 -1.1934
-0.38183001 -0.68120003 -1.1950999
-0.37900001 -0.67998999 -1.193
-0.35942 -0.68163002 -1.1959
-0.35727 -0.68185002 -1.1963
-0.3545 -0.68062001 -1.1941
-0.35235 -0.68084002 -1.1945
-0.3502 -0.68106002 -1.1949
-0.33904001 -0.68115997 -1.1950999
-0.33669001 -0.68089002 -1.1946
-0.32269001 -0.67917001 -1.1916
-0.32071999 -0.67984998 -1.1928
-0.31856999 -0.68005002 -1.1931
-0.29211 -0.68024999 -1.1935
-0.27906001 -0.68074 -1.1943001
-0.27704999 -0.68138999 -1.1954
-0.26829001 -0.68150997 -1.1957
-0.17039999 -0.68182999 -1.1962
-0.95411003 -0.67833 -1.191
-0.95082998 -0.67825001 -1.1909
-0.94753999 -0.67817998 -1.1907001
-0.94595999 -0.67931998 -1.1927
-0.94212002 -0.67883003 -1.1919
-0.93713999 -0.67751002 -1.1896
-0.93330997 -0.67701 -1.1887
-0.93116999 -0.67773002 -1.1900001
-0.92903 -0.67844999 -1.1912
-0.92632002 -0.67875999 -1.1918
-0.92194003 -0.67782998 -1.1901
-0.91869003 -0.67772001 -1.1899
-0.91599 -0.67802 -1.1905
-0.91329002 -0.67830998 -1.191
-0.91114998 -0.67901999 -1.1921999
-0.90789998 -0.67888999 -1.192
-0.90355003 -0.67794001 -1.1903
-0.89811999 -0.67615002 -1.1872
-0.89161998 -0.67352003 -1.1826
-0.88687003 -0.67917001 -1.1925
-0.88363999 -0.67901999 -1.1921999
-0.88095999 -0.67927998 -1.1927
-0.87774003 -0.67912 -1.1924
-0.87506002 -0.67936999 -1.1928
-0.87291002 -0.68005002 -1.194
-0.86703002 -0.67777997 -1.1900001
-0.86330003 -0.67719001 -1.189
-0.86115998 -0.67785001 -1.1902
-0.86006999 -0.67935002 -1.1928
-0.85687 -0.67916 -1.1925
-0.85158002 -0.67729002 -1.1892
-0.84890997 -0.67751998 -1.1896
-0.84625 -0.67773998 -1.1900001
-0.84359002 -0.67796999 -1.1904
-0.84144002 -0.67861003 -1.1914999
-0.83775002 -0.67798001 -1.1904
-0.83560002 -0.67861998 -1.1914999
-0.83293998 -0.67883003 -1.1919
-0.78167999 -0.67409003 -1.1835999
-0.77809 -0.67338997 -1.1823
-0.77596003 -0.67396998 -1.1834
-0.77285999 -0.67369002 -1.1829
-0.76687002 -0.67080998 -1.1778001
-0.76668 -0.67312002 -1.1819
-0.74009001 -0.67905003 -1.1923
-0.73887002 -0.68049002 -1.1948
-0.73626 -0.68059999 -1.1950001
-0.73227 -0.67939001 -1.1928999
-0.72444999 -0.67970997 -1.1934
-0.72229999 -0.68024999 -1.1944
-0.71925002 -0.67991 -1.1938
-0.71530002 -0.67866999 -1.1916
-0.71180999 -0.67787999 -1.1902
-0.70885998 -0.68027002 -1.1944
-0.70670003 -0.68079001 -1.1953
-0.69931 -0.67873001 -1.1917
-0.69673002 -0.67881 -1.1919
-0.69414997 -0.67887998 -1.192
-0.69199997 -0.67939001 -1.1928999
-0.68897998 -0.67901999 -1.1921999
-0.6864 -0.67908001 -1.1923
-0.68339002 -0.67869002 -1.1917
-0.68124998 -0.67919999 -1.1925
-0.67909998 -0.67970002 -1.1934
-0.67610002 -0.67931002 -1.1927
-0.67436999 -0.68026 -1.1944
-0.67095 -0.67940998 -1.1928999
-0.66965002 -0.68080002 -1.1954
-0.66749001 -0.68129998 -1.1962
-0.66491997 -0.68133998 -1.1963
-0.66235 -0.68137997 -1.1964
-0.65811998 -0.67961001 -1.1933
-0.65513998 -0.67919999 -1.1925
-0.65298998 -0.67967999 -1.1934
-0.65043002 -0.67970997 -1.1934
-0.64828002 -0.68018001 -1.1943001
-0.64532 -0.67975003 -1.1935
-0.63391 -0.67846 -1.1912
-0.63095999 -0.67800999 -1.1905
-0.62801999 -0.67756999 -1.1897
-0.62588 -0.67802 -1.1905
-0.62413001 -0.67892998 -1.1921
-0.62238002 -0.67984003 -1.1937
-0.61944997 -0.67939001 -1.1928999
-0.61729997 -0.67984003 -1.1937
-0.60639 -0.67887998 -1.192
-0.60424 -0.67931002 -1.1927
-0.60134 -0.67883998 -1.1919
-0.59805 -0.67790002 -1.1903
-0.59628999 -0.67878997 -1.1918
-0.59377003 -0.67875999 -1.1918
-0.59162003 -0.67918998 -1.1925
-0.5891 -0.67914999 -1.1925
-0.5848 -0.68000001 -1.1939
-0.58008999 -0.67720002 -1.189
-0.57437998 -0.67935997 -1.1928
-0.57222998 -0.67976999 -1.1935
-0.56972998 -0.67971998 -1.1935
-0.56721997 -0.67966998 -1.1934
-0.56080002 -0.67769998 -1.1899
-0.55830002 -0.67763001 -1.1898
-0.54860997 -0.68099999 -1.1957
-0.54543 -0.67998999 -1.1939
-0.54259002 -0.67944998 -1.193
-0.53977001 -0.6789 -1.192
-0.53829998 -0.68020999 -1.1943001
-0.52621001 -0.68023002 -1.1943001
-0.52406001 -0.68059999 -1.1950001
-0.52157998 -0.68049997 -1.1948
-0.51727003 -0.68123001 -1.1961
-0.51480001 -0.68111998 -1.1959
-0.51200002 -0.68054003 -1.1949
-0.50985003 -0.68089998 -1.1955
-0.47850001 -0.68018001 -1.1943001
-0.47635001 -0.68049997 -1.1948
-0.47477999 -0.68177998 -1.1971
-0.46744999 -0.68133003 -1.1963
-0.44556001 -0.67984998 -1.1937
-0.44126001 -0.68044001 -1.1947
-0.43212 -0.68066001 -1.1950999
-0.42298999 -0.68085003 -1.1954
-0.41552001 -0.67976999 -1.1935
-0.40931001 -0.68107003 -1.1957999
-0.40716001 -0.68133003 -1.1963
-0.40452 -0.68063998 -1.1950999
-0.40285 -0.68186998 -1.1971999
-0.39998001 -0.68068999 -1.1952
-0.39543 -0.68072999 -1.1952
-0.39351001 -0.68146002 -1.1964999
-0.39136001 -0.68172002 -1.197
-0.38159999 -0.68031001 -1.1945
-0.37900001 -0.67958999 -1.1932
-0.35705999 -0.68097001 -1.1956
-0.3547 -0.6807 -1.1952
-0.35214001 -0.67996001 -1.1939
-0.32359001 -0.68120003 -1.1961
-0.32143 -0.6814 -1.1964
-0.31981 -0.68304998 -1.1993001
-0.30384001 -0.68190998 -1.1973
-0.30136001 -0.68111998 -1.1959
-0.29688999 -0.68098003 -1.1957
-0.29458001 -0.68066001 -1.1950999
-0.29242 -0.68083 -1.1954
-0.29043001 -0.68149 -1.1966
-0.28795999 -0.68067002 -1.1950999
-0.28165001 -0.68164998 -1.1968
-0.27906001 -0.68033999 -1.1945
-0.27691001 -0.68049997 -1.1948
-0.27217999 -0.67932999 -1.1928
-0.26989001 -0.67899001 -1.1921999
-0.17039999 -0.68142998 -1.1964
-0.95354003 -0.67751998 -1.1905
-0.95139998 -0.67826003 -1.1918
-0.94696999 -0.67737001 -1.1903
-0.9454 -0.67851001 -1.1923
-0.94268 -0.67883003 -1.1928
-0.9411 -0.67997003 -1.1948
-0.935 -0.67783999 -1.1911
-0.93172997 -0.67773998 -1.1909
-0.92847002 -0.67764002 -1.1907001
-0.92743999 -0.67918003 -1.1934
-0.92417002 -0.67907 -1.1933
-0.91979998 -0.67813998 -1.1916
-0.91599 -0.67761999 -1.1907001
-0.91384 -0.67831999 -1.1919
-0.91170001 -0.67903 -1.1932
-0.90789998 -0.67848998 -1.1921999
-0.9052 -0.67878002 -1.1927
-0.90140998 -0.67822999 -1.1918
-0.89708 -0.67727 -1.1901
-0.89166999 -0.67546999 -1.1869
-0.88740999 -0.67918003 -1.1934
-0.88472003 -0.67944998 -1.1939
-0.88150001 -0.67929 -1.1936001
-0.87880999 -0.67954999 -1.1941
-0.87237 -0.67922002 -1.1935
-0.86969 -0.67947 -1.194
-0.86541998 -0.67846 -1.1921999
-0.86432999 -0.67996001 -1.1948
-0.86164999 -0.68020999 -1.1952
-0.8574 -0.67918003 -1.1934
-0.85420001 -0.67899001 -1.1931
-0.85153002 -0.67922997 -1.1935
-0.84728998 -0.67818999 -1.1917
-0.84566998 -0.67926002 -1.1936001
-0.84196001 -0.67862999 -1.1925
-0.84033 -0.67970002 -1.1944
-0.83612001 -0.67864001 -1.1925
-0.83397001 -0.67927998 -1.1936001
-0.77809 -0.67299002 -1.1826
-0.77644998 -0.67400998 -1.1844
-0.77383 -0.67416 -1.1846
-0.77025002 -0.67343998 -1.1834
-0.76668 -0.67272002 -1.1821001
-0.74056 -0.67909002 -1.1933
-0.73747998 -0.67877001 -1.1927
-0.73440999 -0.67843997 -1.1921
-0.73180997 -0.67855 -1.1923
-0.72355002 -0.67842001 -1.1921
-0.72140002 -0.67896003 -1.1931
-0.71880001 -0.67905998 -1.1932
-0.71710002 -0.68004 -1.1950001
-0.71359998 -0.67925 -1.1936001
-0.71144998 -0.67978001 -1.1945
-0.69975001 -0.67878002 -1.1927
-0.69673002 -0.67840999 -1.1921
-0.69502002 -0.67936999 -1.1938
-0.69243002 -0.67944002 -1.1939
-0.69028002 -0.67995 -1.1948
-0.68813002 -0.68045998 -1.1957
-0.68554997 -0.68052 -1.1957999
-0.68252999 -0.68014002 -1.1950999
-0.67909998 -0.67930001 -1.1937
-0.67610002 -0.67891002 -1.193
-0.67395002 -0.67940998 -1.1938
-0.67095 -0.67900997 -1.1931
-0.66754001 -0.67816001 -1.1916
-0.66540003 -0.67865002 -1.1925
-0.66367 -0.67958999 -1.1942
-0.66193002 -0.68052 -1.1957999
-0.65811998 -0.67921001 -1.1935
-0.65556002 -0.67923999 -1.1936001
-0.65258002 -0.67882001 -1.1928
-0.64920002 -0.67795002 -1.1913
-0.64788002 -0.67932999 -1.1937
-0.64573002 -0.67979997 -1.1945
-0.64317 -0.67982 -1.1946
-0.63644999 -0.67804003 -1.1914001
-0.63431001 -0.67851001 -1.1923
-0.63216001 -0.67896998 -1.1931
-0.63041002 -0.67988998 -1.1947
-0.62746 -0.67944002 -1.1939
-0.62453002 -0.67899001 -1.1931
-0.62238002 -0.67944002 -1.1939
-0.62101001 -0.68080002 -1.1963
-0.61846 -0.68080002 -1.1963
-0.61592001 -0.68079001 -1.1963
-0.60930002 -0.67895001 -1.193
-0.60601002 -0.67802 -1.1914001
-0.60424 -0.67891002 -1.193
-0.60209 -0.67935002 -1.1937
-0.59994 -0.67978001 -1.1945
-0.59816998 -0.68067998 -1.1961
-0.59526002 -0.68019003 -1.1952
-0.59198999 -0.67923999 -1.1936001
-0.5848 -0.6796 -1.1942
-0.58118999 -0.67817998 -1.1917
-0.57867998 -0.67812997 -1.1916
-0.57511002 -0.67988002 -1.1947
-0.57258999 -0.67983001 -1.1946
-0.56936997 -0.67886001 -1.1928999
-0.55901003 -0.67816001 -1.1916
-0.55686003 -0.67856002 -1.1923
-0.55470997 -0.67895001 -1.193
-0.54543 -0.67958999 -1.1942
-0.54078001 -0.67988998 -1.1947
-0.53863001 -0.68028003 -1.1954
-0.53648001 -0.68066001 -1.196
-0.53298998 -0.67917001 -1.1934
-0.52587998 -0.67935997 -1.1938
-0.52340001 -0.67926002 -1.1936001
-0.52125001 -0.67962998 -1.1942
-0.51877999 -0.67952001 -1.194
-0.51630998 -0.67941999 -1.1939
-0.51415998 -0.67978001 -1.1945
-0.50182003 -0.67921001 -1.1935
-0.49752 -0.67989999 -1.1947
-0.47821 -0.67930001 -1.1937
-0.47663999 -0.68057001 -1.1959
-0.47420001 -0.68043 -1.1956
-0.47174999 -0.68028003 -1.1954
-0.46902001 -0.67966002 -1.1943001
-0.46658 -0.67949998 -1.194
-0.46472001 -0.68028998 -1.1954
-0.43022001 -0.68102998 -1.1967
-0.42058 -0.68024999 -1.1953
-0.41791999 -0.67957002 -1.1941
-0.41122001 -0.67991 -1.1947
-0.40882 -0.67970002 -1.1944
-0.40691999 -0.68045002 -1.1957
-0.405 -0.68120003 -1.197
-0.40285 -0.68146002 -1.1975
-0.39328 -0.68058002 -1.1959
-0.39089 -0.68035001 -1.1955
-0.38896999 -0.68109 -1.1968
-0.38659 -0.68085998 -1.1964
-0.37922999 -0.67966998 -1.1943001
-0.37729999 -0.68040001 -1.1956
-0.36414999 -0.68133003 -1.1971999
-0.35962999 -0.68129998 -1.1971999
-0.35727 -0.68105 -1.1967
-0.35490999 -0.68079001 -1.1963
-0.35214001 -0.67954999 -1.1941
-0.34999001 -0.67976999 -1.1945
-0.33689001 -0.68055999 -1.1959
-0.33491999 -0.68125999 -1.1971
-0.33276001 -0.68146002 -1.1975
-0.32179001 -0.68197 -1.1983
-0.31946 -0.68168002 -1.1978
-0.30401 -0.68199998 -1.1984
-0.30184999 -0.68217999 -1.1987
-0.29969001 -0.68234998 -1.199
-0.29721001 -0.68155003 -1.1976
-0.2818 -0.68173999 -1.1979001
-0.27950001 -0.6814 -1.1974
-0.27704999 -0.68058002 -1.1959
-0.27031001 -0.68006003 -1.1950001
-0.18777999 -0.68144 -1.1974
-0.16388001 -0.68071002 -1.1961
-0.16167 -0.68027002 -1.1954
-0.15952 -0.68032998 -1.1955
-0.053867001 -0.68172997 -1.1979001
-0.051672999 -0.68217999 -1.1987
-0.95525998 -0.67833 -1.1928999
-0.95196998 -0.67826003 -1.1928
-0.94981998 -0.67900002 -1.1941
-0.94595999 -0.67851001 -1.1932
-0.94212002 -0.67802 -1.1923
-0.94053 -0.67916 -1.1943001
-0.93668997 -0.67865998 -1.1935
-0.93229002 -0.67774999 -1.1919
-0.92903 -0.67764997 -1.1917
-0.92743999 -0.67878002 -1.1937
-0.92473 -0.67908001 -1.1942
-0.92202002 -0.67938 -1.1947
-0.91876 -0.67927003 -1.1945
-0.91605997 -0.67957002 -1.1950999
-0.91224998 -0.67904001 -1.1941
-0.90789998 -0.67808998 -1.1925
-0.9041 -0.67755002 -1.1914999
-0.90140998 -0.67782998 -1.192
-0.89762002 -0.67728001 -1.191
-0.88740999 -0.67878002 -1.1937
-0.88525999 -0.67945999 -1.1949
-0.88257003 -0.67971998 -1.1953
-0.87935001 -0.67957002 -1.1950999
-0.87506002 -0.67856997 -1.1933
-0.87237 -0.67882001 -1.1937
-0.87022001 -0.67948997 -1.1949
-0.86647999 -0.6789 -1.1939
-0.86168998 -0.67746001 -1.1914001
-0.85901999 -0.67769998 -1.1918
-0.85633999 -0.67794001 -1.1921999
-0.85420001 -0.67859 -1.1933
-0.85100001 -0.67839998 -1.193
-0.84780997 -0.67821002 -1.1927
-0.84566998 -0.67885 -1.1938
-0.84351999 -0.67949998 -1.1949
-0.84135997 -0.68014002 -1.1961
-0.83766001 -0.67951 -1.1950001
-0.83447999 -0.67930001 -1.1946
-0.83130997 -0.67909002 -1.1942
-0.77907002 -0.67344999 -1.1842999
-0.77644998 -0.67360997 -1.1846
-0.77383 -0.67376 -1.1848
-0.77073002 -0.67347997 -1.1844
-0.76668 -0.67233002 -1.1823
-0.74362999 -0.67900997 -1.1941
-0.74102002 -0.67913002 -1.1943001
-0.73841 -0.67923999 -1.1945
-0.73534 -0.67891997 -1.1939
-0.73272997 -0.67903 -1.1941
-0.72965997 -0.67869997 -1.1935
-0.72750998 -0.67923999 -1.1945
-0.72060001 -0.68041998 -1.1966
-0.71845001 -0.68096 -1.1975
-0.71404999 -0.67929 -1.1946
-0.7119 -0.67982 -1.1955
-0.69931 -0.67793 -1.1921999
-0.69717002 -0.67844999 -1.1931
-0.69502002 -0.67896003 -1.194
-0.69243002 -0.67903 -1.1941
-0.68941998 -0.67865998 -1.1935
-0.68684 -0.67872 -1.1936001
-0.68598002 -0.68057001 -1.1968
-0.68295997 -0.68018001 -1.1961
-0.67824 -0.67799997 -1.1923
-0.67352998 -0.67856002 -1.1933
-0.67095 -0.67860001 -1.1934
-0.66711998 -0.67730999 -1.1911
-0.66497999 -0.6778 -1.1919
-0.66241002 -0.67783999 -1.192
-0.66235 -0.68057001 -1.1968
-0.65935999 -0.68015999 -1.1961
-0.65556002 -0.67883998 -1.1938
-0.65217 -0.67796999 -1.1923
-0.64920002 -0.67755002 -1.1914999
-0.64705998 -0.67802 -1.1923
-0.64490998 -0.6785 -1.1932
-0.64275998 -0.67896998 -1.194
-0.63726002 -0.67855 -1.1933
-0.63511002 -0.67900997 -1.1941
-0.63296002 -0.67948002 -1.1949
-0.63081002 -0.67993999 -1.1957
-0.62826002 -0.67993999 -1.1957
-0.62571001 -0.67995 -1.1957
-0.62355 -0.68040001 -1.1964999
-0.62101001 -0.68040001 -1.1964999
-0.61808002 -0.67993999 -1.1957
-0.61553001 -0.67992997 -1.1957
-0.60930002 -0.67853999 -1.1933
-0.60715997 -0.67897999 -1.194
-0.60461998 -0.67896998 -1.194
-0.60285002 -0.67986 -1.1956
-0.60070002 -0.6803 -1.1963
-0.59816998 -0.68027002 -1.1963
-0.59489 -0.67932999 -1.1946
-0.59236997 -0.67930001 -1.1946
-0.59021002 -0.67971998 -1.1953
-0.58443999 -0.67873001 -1.1936001
-0.58118999 -0.67777002 -1.1919
-0.57941002 -0.67865002 -1.1934
-0.57797998 -0.67998999 -1.1957999
-0.57582998 -0.68040001 -1.1964999
-0.57295001 -0.67988998 -1.1956
-0.56972998 -0.67891997 -1.1939
-0.56757998 -0.67931998 -1.1946
-0.56541997 -0.67973 -1.1953
-0.56326997 -0.68013 -1.1961
-0.56041002 -0.67961001 -1.1950999
-0.54543 -0.67918998 -1.1944
-0.54294002 -0.67910999 -1.1943001
-0.54078001 -0.67948997 -1.1949
-0.53863001 -0.67987001 -1.1956
-0.53547001 -0.67886001 -1.1938
-0.52983999 -0.67773998 -1.1919
-0.52770001 -0.67812002 -1.1925
-0.52555001 -0.67848998 -1.1932
-0.52307999 -0.67839003 -1.193
-0.52092999 -0.67874998 -1.1936001
-0.51813 -0.67817998 -1.1926
-0.51662999 -0.67948002 -1.1949
-0.51384002 -0.67891002 -1.1939
-0.51137 -0.67879999 -1.1937
-0.50674999 -0.67904001 -1.1941
-0.50213999 -0.67927003 -1.1945
-0.47821 -0.6789 -1.1939
-0.47606 -0.67922997 -1.1945
-0.47146001 -0.67940003 -1.1948
-0.46930999 -0.67973 -1.1953
-0.46658 -0.67909998 -1.1942
-0.45256001 -0.67908001 -1.1942
-0.44852999 -0.68015999 -1.1961
-0.4461 -0.67998999 -1.1957999
-0.42996001 -0.68014002 -1.1961
-0.42058 -0.67984003 -1.1955
-0.41602001 -0.67992002 -1.1957
-0.41387001 -0.68019003 -1.1962
-0.41170999 -0.68046999 -1.1966
-0.40931001 -0.68026 -1.1963
-0.40452 -0.67983001 -1.1955
-0.40237001 -0.68010002 -1.196
-0.39710999 -0.67869997 -1.1935
-0.39590001 -0.68088001 -1.1974
-0.39375001 -0.68114001 -1.1978
-0.38874 -0.68019998 -1.1962
-0.38012001 -0.68119001 -1.1979001
-0.37729999 -0.67998999 -1.1957999
-0.3545 -0.67940998 -1.1948
-0.3502 -0.67984998 -1.1956
-0.33884999 -0.67947 -1.1949
-0.33726999 -0.68112999 -1.1978
-0.33491999 -0.68085003 -1.1973
-0.33276001 -0.68106002 -1.1977
-0.32341 -0.67991 -1.1957
-0.32126001 -0.68010998 -1.196
-0.31946 -0.68127 -1.1981
-0.31711999 -0.68098003 -1.1975
-0.30401 -0.68159002 -1.1986001
-0.30151999 -0.68080002 -1.1971999
-0.29953 -0.68146002 -1.1984
-0.29705 -0.68066001 -1.197
-0.28165001 -0.68084002 -1.1973
-0.27919999 -0.68001997 -1.1959
-0.25295001 -0.6803 -1.1964
-0.24864 -0.68057001 -1.1968
-0.24637 -0.68020999 -1.1962
-0.16399001 -0.68128997 -1.1981
-0.15962 -0.68090999 -1.1974
-0.15531 -0.68102002 -1.1976
-0.13589001 -0.68138999 -1.1983
-0.053762998 -0.68279999 -1.2007999
-0.95468003 -0.67751002 -1.1924
-0.95139998 -0.67743999 -1.1923
-0.94753999 -0.67695999 -1.1914001
-0.94313002 -0.67606002 -1.1899
-0.94268 -0.67800999 -1.1933
-0.93826997 -0.67711002 -1.1917
-0.93612999 -0.67782998 -1.193
-0.93286002 -0.67773998 -1.1928
-0.93071002 -0.67846 -1.1941
-0.92688 -0.67795002 -1.1932
-0.92417002 -0.67825001 -1.1937
-0.92091 -0.67815 -1.1935
-0.91710001 -0.67761999 -1.1926
-0.91439998 -0.67791998 -1.1931
-0.91004002 -0.67697001 -1.1914999
-0.90789998 -0.67767 -1.1927
-0.9052 -0.67795998 -1.1932
-0.90196002 -0.67782998 -1.193
-0.89762002 -0.67685997 -1.1913
-0.88633001 -0.67752999 -1.1925
-0.88309997 -0.67738003 -1.1921999
-0.88095999 -0.67806 -1.1934
-0.87022001 -0.67907 -1.1952
-0.86541998 -0.67764002 -1.1926
-0.86221999 -0.67747003 -1.1923
-0.86006999 -0.67812002 -1.1935
-0.85633999 -0.67751998 -1.1924
-0.85472 -0.67860001 -1.1943001
-0.85153002 -0.67840999 -1.194
-0.84780997 -0.67778999 -1.1928999
-0.84463 -0.67759001 -1.1926
-0.84091997 -0.67697001 -1.1914999
-0.83877999 -0.67760998 -1.1926
-0.83560002 -0.67739999 -1.1921999
-0.83243001 -0.67719001 -1.1918
-0.77907002 -0.67303997 -1.1845
-0.77644998 -0.67319 -1.1848
-0.77383 -0.67334998 -1.1851
-0.77073002 -0.67306 -1.1846
-0.76523 -0.67061001 -1.1803
-0.74194998 -0.67957997 -1.1961
-0.73747998 -0.67795002 -1.1932
-0.73395002 -0.67717999 -1.1918
-0.72229999 -0.67903 -1.1950999
-0.71969998 -0.67912 -1.1953
-0.71574998 -0.67789 -1.1931
-0.71359998 -0.67843002 -1.194
-0.71100998 -0.67851001 -1.1942
-0.70797002 -0.67816001 -1.1936001
-0.70234001 -0.67787999 -1.1931
-0.70019001 -0.67839998 -1.194
-0.69805002 -0.67891997 -1.1949
-0.69546002 -0.67899001 -1.1950001
-0.69287002 -0.67905998 -1.1950999
-0.69072002 -0.67957002 -1.196
-0.68726999 -0.67874998 -1.1946
-0.68382001 -0.67791998 -1.1931
-0.68168002 -0.67842001 -1.194
-0.67782003 -0.67714 -1.1918
-0.67567003 -0.67764002 -1.1926
-0.67352998 -0.67813998 -1.1935
-0.67095 -0.67818999 -1.1936001
-0.6688 -0.67868 -1.1945
-0.66665 -0.67917001 -1.1953
-0.66367 -0.67877001 -1.1946
-0.66150999 -0.67925 -1.1955
-0.65853 -0.67883998 -1.1948
-0.65596998 -0.67887002 -1.1948
-0.65381998 -0.67935997 -1.1957
-0.65002 -0.67803001 -1.1933
-0.64788002 -0.67851001 -1.1942
-0.64490998 -0.67808002 -1.1934
-0.64275998 -0.67855 -1.1942
-0.63940001 -0.67765999 -1.1927
-0.63726002 -0.67812997 -1.1935
-0.63511002 -0.67860001 -1.1943001
-0.63216001 -0.67815 -1.1935
-0.62922001 -0.67771 -1.1928
-0.62707001 -0.67816001 -1.1936001
-0.62571001 -0.67953002 -1.196
-0.62316 -0.67953002 -1.196
-0.62062001 -0.67953002 -1.196
-0.61729997 -0.67861003 -1.1944
-0.61514997 -0.67905998 -1.1950999
-0.60854 -0.67720997 -1.1919
-0.60639 -0.67764997 -1.1927
-0.60424 -0.67808998 -1.1934
-0.60246998 -0.67899001 -1.1950001
-0.60070002 -0.67988002 -1.1966
-0.59741998 -0.67894 -1.1949
-0.59564 -0.67983001 -1.1964999
-0.59198999 -0.67842001 -1.194
-0.58983999 -0.67885 -1.1948
-0.58769 -0.67927003 -1.1955
-0.58516997 -0.67923999 -1.1954
-0.58228999 -0.67874002 -1.1946
-0.58122998 -0.68053001 -1.1977
-0.57871002 -0.68049002 -1.1977
-0.57473999 -0.67860001 -1.1943001
-0.56901002 -0.67758 -1.1925
-0.56471002 -0.67839003 -1.194
-0.56186002 -0.67786002 -1.193
-0.55936003 -0.6778 -1.1928999
-0.55721003 -0.67820001 -1.1936001
-0.55541003 -0.67905998 -1.1950999
-0.55145001 -0.68031001 -1.1973
-0.54474002 -0.67783999 -1.193
-0.54294002 -0.67869002 -1.1945
-0.54044998 -0.67861003 -1.1943001
-0.53863001 -0.67944998 -1.1957999
-0.53614002 -0.67936999 -1.1957
-0.53298998 -0.67834997 -1.1939
-0.52770001 -0.67769998 -1.1927
-0.52521998 -0.67760003 -1.1926
-0.52340001 -0.67843997 -1.194
-0.52092999 -0.67834002 -1.1939
-0.51877999 -0.67869997 -1.1945
-0.51598001 -0.67812997 -1.1935
-0.50707 -0.67909002 -1.1952
-0.50585997 -0.68085003 -1.1983
-0.50370002 -0.68120003 -1.1989
-0.49998999 -0.67919999 -1.1954
-0.49752 -0.67908001 -1.1952
-0.49476001 -0.67848998 -1.1941
-0.49291 -0.67930001 -1.1956
-0.47821 -0.67848003 -1.1941
-0.47576001 -0.67834002 -1.1939
-0.47332001 -0.67818999 -1.1936001
-0.47117001 -0.67851001 -1.1942
-0.46902001 -0.67883003 -1.1947
-0.46687001 -0.67914999 -1.1953
-0.45041001 -0.67896998 -1.1950001
-0.44825 -0.67927003 -1.1955
-0.44582999 -0.67909998 -1.1952
-0.43184999 -0.67896003 -1.1950001
-0.42943999 -0.67877001 -1.1946
-0.42247999 -0.67866999 -1.1945
-0.42032999 -0.67895001 -1.1949
-0.41791999 -0.67874998 -1.1946
-0.41677001 -0.68093997 -1.1984
-0.41411999 -0.68026 -1.1971999
-0.40882 -0.67887998 -1.1948
-0.40452 -0.67941999 -1.1957999
-0.40261 -0.68015999 -1.1971
-0.40068999 -0.68089998 -1.1984
-0.39759001 -0.67923999 -1.1955
-0.39636999 -0.68142003 -1.1993001
-0.38850999 -0.67930001 -1.1956
-0.38635999 -0.67954999 -1.196
-0.38205001 -0.68005002 -1.1969
-0.38012001 -0.68077999 -1.1982
-0.37751999 -0.68006003 -1.1969
-0.36803001 -0.67908001 -1.1952
-0.3547 -0.67948002 -1.1959
-0.35255 -0.67970002 -1.1963
-0.3506 -0.68040001 -1.1975
-0.34138 -0.67980999 -1.1964999
-0.33923 -0.68001997 -1.1968
-0.33746001 -0.68120003 -1.1989
-0.33473 -0.67995 -1.1967
-0.32126001 -0.67969 -1.1962
-0.31909999 -0.67988002 -1.1966
-0.28858 -0.6814 -1.1993001
-0.28580999 -0.67961001 -1.1961
-0.28365999 -0.67978001 -1.1964
-0.28150001 -0.67993999 -1.1967
-0.27935001 -0.68009001 -1.197
-0.25128999 -0.68198001 -1.2003
-0.23797999 -0.68127 -1.199
-0.19024 -0.68251002 -1.2012
-0.17465 -0.67957997 -1.196
-0.15972 -0.68147999 -1.1993999
-0.14027999 -0.68189001 -1.2000999
-0.13808 -0.68142998 -1.1993001
-0.13589001 -0.68097001 -1.1985
-0.11428 -0.68023002 -1.1971999
-0.062442999 -0.68203002 -1.2004
-0.95468003 -0.67708999 -1.1927
-0.95139998 -0.67702001 -1.1925
-0.94810998 -0.67694998 -1.1924
-0.9454 -0.67727 -1.193
-0.94325 -0.67799997 -1.1943001
-0.9411 -0.67873001 -1.1955
-0.93668997 -0.67782003 -1.1939
-0.93342 -0.67773002 -1.1938
-0.93071002 -0.67804003 -1.1943001
-0.92799997 -0.67834997 -1.1949
-0.92473 -0.67825001 -1.1947
-0.92202002 -0.67855 -1.1952
-0.91821003 -0.67803001 -1.1943001
-0.91549999 -0.67831999 -1.1948
-0.91114998 -0.67738003 -1.1932
-0.90735 -0.67684001 -1.1921999
-0.9052 -0.67754 -1.1934
-0.90305001 -0.67824 -1.1947
-0.89981002 -0.67809999 -1.1944
-0.89385003 -0.67589003 -1.1905
-0.88633001 -0.67711002 -1.1927
-0.88309997 -0.67695999 -1.1924
-0.87826997 -0.67556 -1.1899
-0.87022001 -0.67865002 -1.1954
-0.86541998 -0.67721999 -1.1928999
-0.86326998 -0.67789 -1.194
-0.85953999 -0.67729002 -1.193
-0.85582 -0.67668003 -1.1919
-0.85420001 -0.67776 -1.1938
-0.85153002 -0.67799002 -1.1942
-0.84780997 -0.67737001 -1.1931
-0.84411001 -0.67675 -1.1921
-0.84196001 -0.67739999 -1.1932
-0.83981001 -0.67804003 -1.1943001
-0.83612001 -0.67741001 -1.1932
-0.83345997 -0.67761999 -1.1936001
-0.82875001 -0.67613 -1.191
-0.78151 -0.67478001 -1.1885999
-0.77741998 -0.67364001 -1.1866
-0.7748 -0.67378998 -1.1868
-0.77073002 -0.67264998 -1.1848
-0.76811999 -0.6728 -1.1851
-0.76358998 -0.67120999 -1.1823
-0.74102002 -0.67829001 -1.1948
-0.73747998 -0.67752999 -1.1934
-0.73534 -0.67808002 -1.1944
-0.73135 -0.67688 -1.1923
-0.72920001 -0.67742002 -1.1932
-0.72535998 -0.67895001 -1.1959
-0.72276002 -0.67905003 -1.1961
-0.72014999 -0.67913997 -1.1963
-0.71754998 -0.67923999 -1.1964
-0.71495003 -0.67932999 -1.1966
-0.71100998 -0.67809999 -1.1944
-0.70797002 -0.67773998 -1.1938
-0.70234001 -0.67746001 -1.1933
-0.70019001 -0.67798001 -1.1942
-0.69848001 -0.67894 -1.1959
-0.69458002 -0.67768002 -1.1937
-0.69287002 -0.67864001 -1.1954
-0.68984997 -0.67826998 -1.1947
-0.68856001 -0.67966998 -1.1971999
-0.68511999 -0.67883998 -1.1957
-0.68252999 -0.6789 -1.1957999
-0.67824 -0.67716998 -1.1928
-0.67439002 -0.67588001 -1.1905
-0.67268002 -0.67682999 -1.1921999
-0.67095 -0.67777002 -1.1938
-0.6688 -0.67826003 -1.1947
-0.66665 -0.67874998 -1.1956
-0.66408002 -0.67879999 -1.1957
-0.66193002 -0.67927998 -1.1964999
-0.65894997 -0.67887002 -1.1957999
-0.65638 -0.6789 -1.1957999
-0.65423 -0.67939001 -1.1967
-0.65083998 -0.67851001 -1.1952
-0.64828002 -0.67853999 -1.1952
-0.64573002 -0.67856002 -1.1952
-0.64275998 -0.67812997 -1.1945
-0.64060998 -0.67860001 -1.1953
-0.63845998 -0.67907 -1.1961
-0.63471001 -0.67772001 -1.1938
-0.63176 -0.67728001 -1.193
-0.63001001 -0.67818999 -1.1946
-0.62746 -0.67820001 -1.1946
-0.62571001 -0.67910999 -1.1962
-0.62316 -0.67910999 -1.1962
-0.62023002 -0.67865002 -1.1954
-0.61769003 -0.67865002 -1.1954
-0.61592001 -0.67954999 -1.197
-0.61338001 -0.67953998 -1.197
-0.60969001 -0.67816001 -1.1945
-0.60639 -0.67724001 -1.1928999
-0.60461998 -0.67812997 -1.1945
-0.60209 -0.67811 -1.1944
-0.60070002 -0.67945999 -1.1968
-0.59666002 -0.67760003 -1.1936001
-0.59489 -0.67848998 -1.1950999
-0.59162003 -0.67755002 -1.1934
-0.59059 -0.67935002 -1.1966
-0.58769 -0.67885 -1.1957999
-0.58554 -0.67927998 -1.1964999
-0.58339 -0.67970002 -1.1971999
-0.58086002 -0.67965001 -1.1971999
-0.57762003 -0.67869002 -1.1955
-0.57437998 -0.67772001 -1.1938
-0.57151002 -0.67720997 -1.1928999
-0.56901002 -0.67716002 -1.1928
-0.56150001 -0.67698002 -1.1925
-0.55936003 -0.67738003 -1.1932
-0.55721003 -0.67777997 -1.1939
-0.55541003 -0.67864001 -1.1954
-0.54543 -0.67834997 -1.1949
-0.54294002 -0.67826998 -1.1947
-0.54010999 -0.67772001 -1.1938
-0.53829998 -0.67856997 -1.1953
-0.53513998 -0.67755002 -1.1935
-0.53298998 -0.67793 -1.1941
-0.53017998 -0.67737001 -1.1931
-0.52868998 -0.67868 -1.1954
-0.52555001 -0.67764997 -1.1936001
-0.52406001 -0.67895001 -1.1959
-0.52092999 -0.67791998 -1.1941
-0.51877999 -0.67828 -1.1947
-0.51598001 -0.67771 -1.1937
-0.51137 -0.67795998 -1.1942
-0.50674999 -0.67820001 -1.1946
-0.50523001 -0.67948997 -1.1969
-0.50307 -0.67984003 -1.1975
-0.50029999 -0.67925 -1.1964999
-0.49722001 -0.67818999 -1.1946
-0.49476001 -0.67807001 -1.1944
-0.49261001 -0.67840999 -1.1950001
-0.48006001 -0.67725998 -1.1928999
-0.47821 -0.67806 -1.1944
-0.47547001 -0.67745 -1.1933
-0.47361001 -0.67824 -1.1947
-0.47117001 -0.67808998 -1.1944
-0.46902001 -0.67842001 -1.1950001
-0.46630001 -0.67778999 -1.1939
-0.46415001 -0.67811 -1.1944
-0.45311001 -0.67918998 -1.1963
-0.45067999 -0.67901999 -1.1961
-0.44825 -0.67885 -1.1957
-0.44527999 -0.67773002 -1.1938
-0.44367999 -0.67897999 -1.196
-0.43212 -0.67901999 -1.196
-0.42324001 -0.67967999 -1.1971999
-0.42109001 -0.67996001 -1.1977
-0.41868001 -0.67975998 -1.1974
-0.41626999 -0.67956001 -1.197
-0.41411999 -0.67984003 -1.1975
-0.40931001 -0.67941999 -1.1968
-0.40525001 -0.68043 -1.1985
-0.39782 -0.67930001 -1.1964999
-0.39636999 -0.68099999 -1.1995
-0.38828 -0.67839998 -1.1950001
-0.38613001 -0.67865002 -1.1954
-0.37707999 -0.67866999 -1.1954
-0.37062001 -0.67939001 -1.1967
-0.36846 -0.67962003 -1.1971
-0.35275 -0.67976999 -1.1974
-0.3506 -0.67998999 -1.1977
-0.34863999 -0.68068999 -1.199
-0.34628001 -0.68041998 -1.1985
-0.33649999 -0.67834997 -1.1949
-0.3353 -0.68098003 -1.1995
-0.32108 -0.67878002 -1.1956
-0.31281 -0.68050998 -1.1987
-0.28595999 -0.67967999 -1.1971999
-0.28136 -0.67903 -1.1961
-0.27474999 -0.67900997 -1.196
-0.25117001 -0.68107003 -1.1997
-0.24901 -0.68120003 -1.1999
-0.24218 -0.68011999 -1.198
-0.24002001 -0.68023998 -1.1982
-0.17922001 -0.68098998 -1.1995
-0.15972 -0.68106002 -1.1996
-0.14035 -0.68246001 -1.2021
-0.95525998 -0.67702001 -1.1936001
-0.95253998 -0.67736 -1.1942
-0.95038998 -0.67808998 -1.1955
-0.94766998 -0.67842001 -1.1961
-0.94494998 -0.67874998 -1.1967
-0.93883997 -0.67663002 -1.1928999
-0.935 -0.67613 -1.1921
-0.93286002 -0.67685002 -1.1933
-0.93071002 -0.67756999 -1.1946
-0.92743999 -0.67747003 -1.1944
-0.92091 -0.67725003 -1.194
-0.91931999 -0.67837 -1.196
-0.91661 -0.67866999 -1.1964999
-0.91224998 -0.67773002 -1.1949
-0.90735 -0.67637002 -1.1925
-0.90574998 -0.67747998 -1.1944
-0.90305001 -0.67776 -1.1949
-0.90090001 -0.67844999 -1.1962
-0.89221001 -0.67417997 -1.1885999
-0.88687003 -0.67706001 -1.1937
-0.88472003 -0.67773998 -1.1949
-0.88203001 -0.67799997 -1.1953
-0.87667 -0.67616999 -1.1921
-0.87344998 -0.67601001 -1.1918
-0.87023997 -0.67584002 -1.1914999
-0.86756998 -0.67609 -1.192
-0.86488998 -0.67632997 -1.1924
-0.86221999 -0.67657 -1.1928
-0.86006999 -0.67723 -1.194
-0.8574 -0.67747003 -1.1944
-0.85420001 -0.67728001 -1.1941
-0.85205001 -0.67793 -1.1952
-0.84886003 -0.67773998 -1.1949
-0.84618002 -0.67795998 -1.1953
-0.84248 -0.67733997 -1.1942
-0.83877999 -0.67672002 -1.1931
-0.83662999 -0.67734998 -1.1942
-0.83397001 -0.67756999 -1.1946
-0.82977003 -0.67650998 -1.1927
-0.78297001 -0.67559999 -1.1911
-0.77888 -0.67445999 -1.1891
-0.77577001 -0.67418998 -1.1885999
-0.77073002 -0.67218 -1.1851
-0.76859999 -0.67276001 -1.1861
-0.76599002 -0.67290002 -1.1864001
-0.75174999 -0.66997999 -1.1812
-0.74409997 -0.67812997 -1.1956
-0.74102002 -0.67782003 -1.1950001
-0.73887002 -0.67837 -1.196
-0.73672003 -0.67891997 -1.197
-0.73409998 -0.67903 -1.1971999
-0.73194999 -0.67957997 -1.1981
-0.72887999 -0.67925 -1.1976
-0.72491002 -0.67803001 -1.1954
-0.72184998 -0.67769003 -1.1948
-0.72014999 -0.67866999 -1.1964999
-0.71710002 -0.67831999 -1.1959
-0.71404999 -0.67796999 -1.1953
-0.71100998 -0.67761999 -1.1947
-0.70841002 -0.67771 -1.1948
-0.70582002 -0.67778999 -1.1950001
-0.70323002 -0.67786998 -1.1950999
-0.70019001 -0.67751002 -1.1945
-0.69936001 -0.67935997 -1.1977
-0.6972 -0.67987001 -1.1987
-0.69374001 -0.67905998 -1.1971999
-0.69028002 -0.67824 -1.1957999
-0.68769997 -0.67830002 -1.1959
-0.68511999 -0.67835999 -1.196
-0.68211001 -0.67798001 -1.1953
-0.67909998 -0.67759001 -1.1946
-0.67352998 -0.67725003 -1.194
-0.67180002 -0.67818999 -1.1957
-0.66922998 -0.67824 -1.1957999
-0.66665 -0.67828 -1.1957999
-0.6645 -0.67877001 -1.1967
-0.66061002 -0.68019003 -1.1992
-0.65762001 -0.67978001 -1.1985
-0.65464002 -0.67935997 -1.1978
-0.65248001 -0.67984003 -1.1986001
-0.64868999 -0.67852002 -1.1963
-0.64653999 -0.67899001 -1.1971
-0.64317 -0.67811 -1.1955
-0.63981003 -0.67721999 -1.194
-0.63726002 -0.67724001 -1.194
-0.63511002 -0.67769998 -1.1948
-0.63296002 -0.67817003 -1.1956
-0.63001001 -0.67772001 -1.1949
-0.62746 -0.67773002 -1.1949
-0.62531 -0.67817998 -1.1957
-0.62316 -0.67862999 -1.1964999
-0.61944997 -0.67727 -1.1941
-0.61729997 -0.67772001 -1.1949
-0.61514997 -0.67817003 -1.1956
-0.61299002 -0.67861003 -1.1964
-0.61084002 -0.67905998 -1.1971999
-0.60869002 -0.67949998 -1.198
-0.60500997 -0.67811 -1.1956
-0.60399002 -0.67992002 -1.1987
-0.60070002 -0.67897999 -1.1971
-0.59930003 -0.68032998 -1.1995
-0.59526002 -0.67847002 -1.1962
-0.59349 -0.67935997 -1.1978
-0.59096003 -0.67932999 -1.1977
-0.58806002 -0.67883998 -1.1968
-0.58516997 -0.67834002 -1.196
-0.58301997 -0.67875999 -1.1967
-0.58086002 -0.67918003 -1.1974
-0.57652998 -0.67684001 -1.1933
-0.57437998 -0.67725003 -1.194
-0.57187003 -0.67720002 -1.1939
-0.56936997 -0.67714 -1.1938
-0.56686002 -0.67708999 -1.1937
-0.56541997 -0.67842001 -1.1961
-0.56397998 -0.67974001 -1.1984
-0.56111997 -0.67922002 -1.1975
-0.55861002 -0.67916 -1.1974
-0.55576003 -0.67862999 -1.1964999
-0.54044998 -0.67771 -1.1949
-0.53829998 -0.67809999 -1.1955
-0.53614002 -0.67847002 -1.1962
-0.53332001 -0.67791998 -1.1952
-0.53083998 -0.67782998 -1.1950999
-0.52868998 -0.67820001 -1.1957
-0.52687001 -0.67904001 -1.1971999
-0.52438003 -0.67894 -1.197
-0.52157998 -0.67838001 -1.196
-0.51942998 -0.67874002 -1.1967
-0.51630998 -0.67769998 -1.1948
-0.51447999 -0.67852998 -1.1963
-0.51200002 -0.67842001 -1.1961
-0.50985003 -0.67878002 -1.1967
-0.50674999 -0.67773002 -1.1949
-0.50428998 -0.67760998 -1.1947
-0.50151002 -0.67703003 -1.1936001
-0.49936 -0.67737001 -1.1942
-0.49722001 -0.67772001 -1.1949
-0.49537 -0.67852998 -1.1963
-0.49322 -0.67887002 -1.1969
-0.48370001 -0.67881 -1.1968
-0.48095 -0.67820001 -1.1957
-0.47850001 -0.67806 -1.1955
-0.47606 -0.67791998 -1.1952
-0.47391 -0.67824 -1.1957999
-0.47146001 -0.67808998 -1.1955
-0.46959999 -0.67888999 -1.1969
-0.46744999 -0.67921001 -1.1975
-0.46557999 -0.68000001 -1.1989
-0.45339 -0.67918998 -1.1975
-0.44984999 -0.67712998 -1.1938
-0.44771001 -0.67742997 -1.1943001
-0.42159 -0.68044001 -1.1997
-0.41843 -0.67881 -1.1968
-0.41602001 -0.67861003 -1.1964
-0.41170999 -0.67914999 -1.1974
-0.405 -0.67948002 -1.198
-0.40237001 -0.67878997 -1.1967
-0.39735001 -0.67786998 -1.1950999
-0.39567 -0.67909002 -1.1973
-0.39351001 -0.67934 -1.1977
-0.38589999 -0.67769998 -1.1948
-0.36846 -0.67914999 -1.1974
-0.35984001 -0.68006998 -1.199
-0.35295999 -0.67976999 -1.1985
-0.35100001 -0.68048 -1.1997
-0.33765 -0.68079001 -1.2003
-0.33491999 -0.67953998 -1.1981
-0.32394999 -0.68005002 -1.199
-0.32108 -0.67830998 -1.1959
-0.30831999 -0.67992002 -1.1987
-0.29903999 -0.67868 -1.1966
-0.28827 -0.67953002 -1.1981
-0.28611001 -0.67969 -1.1983
-0.28351 -0.67839003 -1.196
-0.28150001 -0.67904001 -1.1971999
-0.26815999 -0.67848998 -1.1962
-0.24889 -0.68023998 -1.1993001
-0.23797999 -0.68037999 -1.1995
-0.23548 -0.67903 -1.1971999
-0.17922001 -0.68050998 -1.1998
-0.17262 -0.67973 -1.1984
-0.16842 -0.68084002 -1.2004
-0.16626 -0.68089998 -1.2005
-0.16404 -0.68046999 -1.1997
-0.15977 -0.68107003 -1.2007999
-0.15761 -0.68112999 -1.2009
-0.13815001 -0.68151999 -1.2016
-0.053727999 -0.68198001 -1.2024
-0.95525998 -0.67654002 -1.1939
-0.95253998 -0.67688 -1.1945
-0.95038998 -0.67760998 -1.1957999
-0.94483 -0.67591 -1.1928
-0.94098002 -0.67541999 -1.1919
-0.93770999 -0.67532998 -1.1918
-0.93668997 -0.67686999 -1.1945
-0.93342 -0.67677999 -1.1943001
-0.93182999 -0.67790002 -1.1963
-0.92799997 -0.67738998 -1.1954
-0.92194003 -0.67523998 -1.1916
-0.91812998 -0.67471999 -1.1907001
-0.91599 -0.67543 -1.1919
-0.91384 -0.67613 -1.1932
-0.91224998 -0.67725003 -1.1950999
-0.90955001 -0.67752999 -1.1957
-0.90794998 -0.67865002 -1.1976
-0.90469003 -0.67852002 -1.1974
-0.90090001 -0.67796999 -1.1964
-0.89493001 -0.67576998 -1.1925
-0.88687003 -0.67658001 -1.194
-0.88525999 -0.67767 -1.1959
-0.88150001 -0.6771 -1.1949
-0.87826997 -0.67694002 -1.1946
-0.87399 -0.67594999 -1.1928999
-0.87023997 -0.67536002 -1.1918
-0.86703002 -0.67518997 -1.1914999
-0.86435997 -0.67543 -1.1919
-0.86221999 -0.67609 -1.1931
-0.85953999 -0.67632997 -1.1935
-0.85791999 -0.67741001 -1.1954
-0.85472 -0.67721999 -1.1950999
-0.85205001 -0.67745 -1.1955
-0.84938002 -0.67768002 -1.1959
-0.84670001 -0.67790002 -1.1963
-0.84196001 -0.67644 -1.1937
-0.83825999 -0.67580998 -1.1926
-0.83560002 -0.67602998 -1.193
-0.83243001 -0.67581999 -1.1926
-0.82925999 -0.67559999 -1.1921999
-0.78151 -0.67382997 -1.1891
-0.77741998 -0.67268997 -1.1871001
-0.77432001 -0.67241001 -1.1866
-0.77218002 -0.67299998 -1.1876
-0.76956999 -0.67313999 -1.1878999
-0.76551002 -0.67198998 -1.1859
-0.75838 -0.67053998 -1.1833
-0.75174999 -0.66949999 -1.1815
-0.73917001 -0.67558998 -1.1921999
-0.73747998 -0.67658001 -1.194
-0.73534 -0.67712998 -1.1949
-0.73364002 -0.67811 -1.1967
-0.73057997 -0.67777997 -1.1961
-0.72750998 -0.67745 -1.1955
-0.72399998 -0.67667001 -1.1941
-0.72140002 -0.67676997 -1.1943001
-0.72014999 -0.67818999 -1.1968
-0.71574998 -0.67651999 -1.1939
-0.71315002 -0.67660999 -1.194
-0.71056002 -0.6767 -1.1942
-0.70797002 -0.67677999 -1.1943001
-0.70537001 -0.67686999 -1.1945
-0.70234001 -0.67650998 -1.1938
-0.70019001 -0.67703003 -1.1948
-0.69892001 -0.67843002 -1.1971999
-0.69677001 -0.67895001 -1.1981
-0.69418001 -0.67901999 -1.1983
-0.69028002 -0.67774999 -1.196
-0.68769997 -0.67782003 -1.1962
-0.68511999 -0.67787999 -1.1963
-0.68295997 -0.67839003 -1.1971999
-0.67995 -0.67799997 -1.1964999
-0.67694998 -0.67760998 -1.1957999
-0.67479998 -0.67811 -1.1967
-0.67264003 -0.67860001 -1.1975
-0.66582 -0.67690003 -1.1945
-0.66109997 -0.67742997 -1.1955
-0.65935999 -0.67835999 -1.1971
-0.65762001 -0.67930001 -1.1988
-0.65504998 -0.67932999 -1.1988
-0.65125 -0.67800999 -1.1964999
-0.64747 -0.67668003 -1.1942
-0.64532 -0.67716002 -1.1950001
-0.64317 -0.67763001 -1.1957999
-0.64020997 -0.67719001 -1.1950999
-0.63726002 -0.67676002 -1.1943001
-0.63511002 -0.67721999 -1.1950999
-0.63296002 -0.67768002 -1.1959
-0.63081002 -0.67813998 -1.1967
-0.62746 -0.67724001 -1.1950999
-0.62531 -0.67769998 -1.1959
-0.62277001 -0.67769998 -1.1959
-0.61984003 -0.67724001 -1.1950999
-0.61729997 -0.67724001 -1.1950999
-0.61436999 -0.67677999 -1.1943001
-0.61145002 -0.67631 -1.1935
-0.60930002 -0.67675 -1.1943001
-0.60754001 -0.67764997 -1.1959
-0.60500997 -0.67763001 -1.1957999
-0.60246998 -0.67760998 -1.1957999
-0.59956998 -0.67712998 -1.1949
-0.59816998 -0.67848003 -1.1973
-0.59311002 -0.67842001 -1.1971999
-0.59021002 -0.67793 -1.1964
-0.58443999 -0.67694002 -1.1946
-0.58192003 -0.67690003 -1.1945
-0.58013999 -0.67777997 -1.1961
-0.57726002 -0.67727 -1.1952
-0.57511002 -0.67769003 -1.1959
-0.57258999 -0.67764002 -1.1957999
-0.57043999 -0.67804998 -1.1966
-0.56792998 -0.67799002 -1.1964999
-0.56541997 -0.67793 -1.1964
-0.56503999 -0.68063998 -1.2011
-0.56111997 -0.67874002 -1.1978
-0.55861002 -0.67866999 -1.1977
-0.55470997 -0.67676002 -1.1943001
-0.54610997 -0.67831999 -1.197
-0.54395998 -0.67870998 -1.1977
-0.54111999 -0.67816001 -1.1968
-0.53829998 -0.67760998 -1.1957999
-0.53648001 -0.67846 -1.1973
-0.53399003 -0.67837 -1.1971
-0.53250003 -0.67967999 -1.1993999
-0.52968001 -0.67912 -1.1985
-0.52752 -0.67948997 -1.1991
-0.52503997 -0.67939001 -1.1989
-0.52223003 -0.67883003 -1.1979001
-0.51942998 -0.67826003 -1.1969
-0.51662999 -0.67769003 -1.1959
-0.51447999 -0.67804998 -1.1966
-0.51264 -0.67887998 -1.198
-0.51049 -0.67922997 -1.1987
-0.50770003 -0.67865002 -1.1976
-0.50459999 -0.67760003 -1.1957999
-0.50213999 -0.67747998 -1.1956
-0.49967 -0.67736 -1.1953
-0.49845001 -0.67910999 -1.1984
-0.49629 -0.67945999 -1.199
-0.49414 -0.67979997 -1.1997
-0.49076 -0.67826003 -1.1969
-0.48370001 -0.67833 -1.1971
-0.48153999 -0.67865998 -1.1976
-0.4788 -0.67804998 -1.1966
-0.47606 -0.67742997 -1.1955
-0.47391 -0.67776 -1.1961
-0.47204 -0.67855 -1.1975
-0.46959999 -0.67839998 -1.1971999
-0.46772999 -0.67919999 -1.1986001
-0.465 -0.67856997 -1.1975
-0.45282999 -0.67776 -1.1961
-0.44984999 -0.67663997 -1.1941
-0.44852999 -0.67837 -1.1971
-0.4461 -0.67820001 -1.1968
-0.44395 -0.6785 -1.1974
-0.43074 -0.67978001 -1.1996
-0.42133999 -0.67948002 -1.1991
-0.41892999 -0.67927998 -1.1987
-0.41751999 -0.68098998 -1.2018
-0.41220999 -0.67962998 -1.1993001
-0.40981001 -0.67941999 -1.199
-0.40764999 -0.67969 -1.1995
-0.39782 -0.67834997 -1.1971
-0.39590001 -0.67908001 -1.1984
-0.38420999 -0.67843002 -1.1971999
-0.37536001 -0.67891997 -1.1981
-0.36868 -0.67914999 -1.1985
-0.36651999 -0.67938 -1.1989
-0.35510999 -0.67907 -1.1984
-0.35295999 -0.67929 -1.1988
-0.3506 -0.67903 -1.1983
-0.34784001 -0.67778999 -1.1961
-0.33981001 -0.68009001 -1.2002
-0.33746001 -0.67982 -1.1997
-0.33548999 -0.68050998 -1.2009
-0.32179001 -0.67976999 -1.1996
-0.31928 -0.67899001 -1.1982
-0.31711999 -0.67918003 -1.1986001
-0.30849001 -0.67992002 -1.1999
-0.28396001 -0.67936999 -1.1989
-0.27993 -0.68067002 -1.2012
-0.25319999 -0.67948997 -1.1991
-0.23808999 -0.68037999 -1.2007
-0.18807 -0.68120998 -1.2021
-0.18591 -0.68128002 -1.2023
-0.17705999 -0.68010002 -1.2002
-0.17501999 -0.68115002 -1.202
-0.17274 -0.68023002 -1.2004
-0.17064001 -0.68079001 -1.2014
-0.16842 -0.68036002 -1.2006
-0.16631 -0.68090999 -1.2016
-0.16415 -0.68097001 -1.2017
-0.16188 -0.68004 -1.2000999
-0.15756001 -0.68014997 -1.2003
-0.15545 -0.6807 -1.2012
-0.062499002 -0.67966002 -1.1993999
-0.053762998 -0.68099999 -1.2018
-0.019114999 -0.68066001 -1.2012
-0.95696998 -0.67725003 -1.1963
-0.95481998 -0.67799002 -1.1976
-0.95209998 -0.67831999 -1.1982
-0.94709998 -0.67702001 -1.1959
-0.94212002 -0.67571998 -1.1936001
-0.93883997 -0.67563999 -1.1935
-0.93725997 -0.67676997 -1.1955
-0.93397999 -0.67667001 -1.1953
-0.93182999 -0.67738998 -1.1966
-0.93080002 -0.67892998 -1.1993001
-0.92695999 -0.67842001 -1.1984
-0.92202002 -0.67707998 -1.196
-0.91654003 -0.67532998 -1.193
-0.91384 -0.67562002 -1.1935
-0.91224998 -0.67673999 -1.1954
-0.91009998 -0.67743999 -1.1967
-0.90740001 -0.67772001 -1.1971999
-0.90359998 -0.67717999 -1.1962
-0.89925998 -0.67622 -1.1945
-0.8933 -0.67401999 -1.1906
-0.88687003 -0.67606997 -1.1943001
-0.88363999 -0.67592001 -1.194
-0.88042003 -0.67575997 -1.1937
-0.87826997 -0.67642999 -1.1949
-0.87611997 -0.6771 -1.1961
-0.87291002 -0.67694002 -1.1957999
-0.86862999 -0.67593998 -1.194
-0.86541998 -0.67575997 -1.1937
-0.86326998 -0.67641997 -1.1949
-0.85795999 -0.67457002 -1.1916
-0.85633999 -0.67563999 -1.1935
-0.85472 -0.67671001 -1.1954
-0.85308999 -0.67777997 -1.1973
-0.85093999 -0.67843002 -1.1984
-0.84722 -0.67782003 -1.1973
-0.84248 -0.67635 -1.1948
-0.83825999 -0.67531002 -1.1928999
-0.83612001 -0.67593998 -1.194
-0.83397001 -0.67658001 -1.1952
-0.83130997 -0.67679 -1.1955
-0.78034002 -0.67477 -1.192
-0.77626002 -0.67363 -1.1899
-0.77266997 -0.67291999 -1.1887
-0.77052999 -0.6735 -1.1897
-0.76695001 -0.67277998 -1.1884
-0.76385999 -0.67249 -1.1878999
-0.75269997 -0.66987002 -1.1833
-0.74102002 -0.67682999 -1.1956
-0.73887002 -0.67738003 -1.1966
-0.73626 -0.67749 -1.1968
-0.73319 -0.67716002 -1.1962
-0.72965997 -0.67640001 -1.1948
-0.72842002 -0.67782003 -1.1973
-0.72582 -0.67791998 -1.1975
-0.72276002 -0.67758 -1.1969
-0.72014999 -0.67768002 -1.1971
-0.71754998 -0.67777002 -1.1973
-0.71359998 -0.67654002 -1.1950999
-0.71100998 -0.67663002 -1.1952
-0.70708001 -0.67539001 -1.1931
-0.70493001 -0.67592001 -1.194
-0.70190001 -0.67556 -1.1933
-0.69975001 -0.67606997 -1.1943001
