# .PCD v0.7 - Point Cloud Data file format
VERSION 0.7
FIELDS x y z
SIZE 4 4 4
TYPE F F F
COUNT 1 1 1
WIDTH 1610
HEIGHT 1
VIEWPOINT 0 0 0 1 0 0 0
POINTS 1610
DATA ascii
0.048319001 0.033319 -1.1026
0.049541999 0.033222001 -1.0994
0.051367 0.033243999 -1.1002001
0.053194001 0.033266 -1.1009001
0.054868001 0.033257999 -1.1006
0.057016 0.033339001 -1.1033
0.059654001 0.03351 -1.109
0.061664999 0.033560999 -1.1107
0.063355997 0.033553001 -1.1104
0.064882003 0.033514 -1.1091
0.066069998 0.033417001 -1.1059
0.079268999 0.033592001 -1.1117001
0.080962002 0.033583 -1.1114
0.082653999 0.033573002 -1.1111
0.086603999 0.033365998 -1.1042
0.088284001 0.033357002 -1.1039
0.096173003 0.033495001 -1.1085
0.098058 0.033514 -1.1091
0.099745996 0.033504002 -1.1088001
0.10143 0.033493001 -1.1084
0.10312 0.033482999 -1.1081001
0.10501 0.033502001 -1.1087
0.10649 0.033461001 -1.1073999
0.10818 0.033450998 -1.107
0.10986 0.033440001 -1.1066
0.11218 0.033516999 -1.1092
0.11408 0.033535998 -1.1098
0.11556 0.033495001 -1.1085
0.11725 0.033484001 -1.1081001
0.11937 0.033530999 -1.1097
0.12106 0.033519998 -1.1093
0.12399 0.033438001 -1.1066
0.12567 0.033426002 -1.1062
0.12736 0.033415001 -1.1058
0.12949 0.033461001 -1.1073999
0.13164 0.033507999 -1.1089
0.13356 0.033526 -1.1095001
0.13572 0.033572 -1.1109999
0.13764 0.033589002 -1.1116
0.13981 0.033635002 -1.1131001
0.14103 0.033564001 -1.1108
0.14272 0.033551998 -1.1102999
0.14441 0.033539001 -1.1099
0.14658999 0.033585001 -1.1114
0.14827999 0.033572 -1.1109999
0.14997 0.033558998 -1.1106
0.15265 0.033663001 -1.114
0.15435 0.03365 -1.1136
0.1558 0.033606999 -1.1122
0.15697999 0.033535 -1.1098
0.15866999 0.033521999 -1.1094
0.15985 0.03345 -1.107
0.16179 0.033466 -1.1075
0.16426 0.033539001 -1.1099
0.16621 0.033555001 -1.1104
0.16948 0.033716001 -1.1158
0.17117999 0.033702001 -1.1153001
0.17287999 0.033686999 -1.1148
0.17404 0.033615001 -1.1124001
0.17546 0.033571001 -1.1109999
0.17715999 0.033557002 -1.1105
0.17912 0.033572 -1.1109999
0.18136001 0.033615001 -1.1124001
0.18389 0.033686999 -1.1148
0.18503 0.033615001 -1.1124001
0.18700001 0.033629 -1.1129
0.18785 0.033527002 -1.1095001
0.18983001 0.033541001 -1.11
0.1918 0.033553999 -1.1104
0.19464 0.033654999 -1.1138
0.19663 0.033668 -1.1142
0.19832 0.033652999 -1.1137
0.19914 0.033551 -1.1102999
0.20083 0.033535 -1.1098
0.20282 0.033548001 -1.1102
0.20480999 0.033560999 -1.1107
0.20859 0.033746999 -1.1168
0.21059 0.033759002 -1.1172
0.21229 0.033743002 -1.1167001
0.21338999 0.033668999 -1.1142
0.21478 0.033624001 -1.1127
0.21878999 0.033647999 -1.1136
0.22342999 0.03373 -1.1162
0.22418 0.033627 -1.1128
0.22555999 0.033581 -1.1113
0.22757 0.033592999 -1.1117001
0.23022 0.033661999 -1.114
0.23288 0.03373 -1.1163
0.23523 0.033769999 -1.1176
0.23693 0.033752002 -1.117
0.23863 0.033735 -1.1164
0.23999999 0.033688001 -1.1149
0.24169999 0.033670001 -1.1143
0.24372999 0.033681002 -1.1145999
0.24676 0.033776999 -1.1178
0.24778999 0.033702001 -1.1153001
0.24948999 0.033684 -1.1147
0.25152999 0.033693999 -1.1151
0.25356001 0.033704001 -1.1154
0.25593999 0.033741999 -1.1166
0.25832999 0.033780001 -1.1179
0.26003 0.033760998 -1.1173
0.26583001 0.033760998 -1.1173
0.26754001 0.033741999 -1.1166
0.26993999 0.033778999 -1.1179
0.27235001 0.033815999 -1.1191
0.27335 0.033739999 -1.1166
0.27469 0.033693001 -1.115
0.27638999 0.033673 -1.1144
0.27845001 0.033681002 -1.1145999
0.28014001 0.033661999 -1.114
0.28705999 0.033741999 -1.1166
0.28839999 0.033693999 -1.115
0.29045999 0.033700999 -1.1153001
0.29572999 0.033801001 -1.1186
0.29668 0.033723999 -1.1160001
0.29876 0.033730999 -1.1163
0.30120999 0.033766001 -1.1174001
0.30406001 0.033829 -1.1195
0.30537999 0.033780001 -1.1179
0.30785 0.033814002 -1.119
0.30917001 0.033764999 -1.1174001
0.31163999 0.033799 -1.1185
0.31490001 0.033888999 -1.1215
0.317 0.033895001 -1.1217
0.31753999 0.03379 -1.1181999
0.31924 0.033767998 -1.1174999
0.32133999 0.033774 -1.1177
0.32712001 0.033895999 -1.1217
0.32844001 0.033845998 -1.1201
0.33054 0.033851001 -1.1202
0.33305001 0.033884 -1.1213
0.33517 0.033888001 -1.1215
0.33647001 0.033838 -1.1198
0.33776999 0.033787999 -1.1181999
0.34029001 0.03382 -1.1192
0.34281999 0.033852 -1.1203001
0.34575999 0.033911001 -1.1222
0.34663999 0.033833001 -1.1196001
0.34834999 0.033808999 -1.1188999
0.3513 0.033868 -1.1208
0.35685 0.033824001 -1.1194
0.37393999 0.033980999 -1.1246001
0.39416 0.033918001 -1.1224999
0.39631999 0.033918999 -1.1224999
0.39894 0.033946998 -1.1234
0.40110001 0.033946998 -1.1234
0.40935001 0.033546999 -1.1102
0.41150999 0.033546999 -1.1102
0.41600001 0.033681002 -1.1145999
0.41769001 0.033654001 -1.1137
0.41938999 0.033626001 -1.1128
0.42155001 0.033626001 -1.1128
0.42419001 0.033652 -1.1137
0.42541999 0.033597998 -1.1119
0.42758 0.033597 -1.1118
0.42928001 0.033569001 -1.1109
0.43191999 0.033594001 -1.1117001
0.43505999 0.033645999 -1.1135
0.43724 0.033643998 -1.1134
0.43893 0.033615999 -1.1125
0.44255999 0.033693001 -1.115
0.44523001 0.033716999 -1.1158
-0.67496997 0.032313999 -1.0349
-0.65499997 0.032193001 -1.031
-0.59552002 0.032384999 -1.0372
-0.58025998 0.032326002 -1.0353
-0.57745999 0.032515001 -1.0413001
-0.57542002 0.032513 -1.0413001
-0.57244003 0.032455999 -1.0395
-0.56744999 0.032398 -1.0376
-0.56449002 0.032340001 -1.0357
-0.56118 0.032499 -1.0408
-0.55667001 0.032466002 -1.0398
-0.55465001 0.032464001 -1.0397
-0.52982002 0.032499 -1.0408
-0.52824998 0.032522999 -1.0416
-0.49415001 0.032667998 -1.0462
-0.49057001 0.032545999 -1.0423
-0.48859999 0.032538999 -1.0421
-0.48622999 0.032503001 -1.041
-0.47953999 0.032694001 -1.0470999
-0.47795999 0.032715 -1.0477
-0.47521999 0.032648999 -1.0456001
-0.42934999 0.032775 -1.0497
-0.42741999 0.032763999 -1.0493
-0.40766001 0.032749999 -1.0488
-0.39148 0.032885 -1.0532
-0.38896999 0.032811999 -1.0508
-0.38615999 0.032708999 -1.0475
-0.38457999 0.032724001 -1.048
-0.38240001 0.032680001 -1.0466
-0.37507001 0.032816999 -1.051
-0.37349001 0.032832 -1.0515
-0.37160999 0.032816999 -1.051
-0.37002 0.032832 -1.0515
-0.33213001 0.032806002 -1.0506001
-0.32589999 0.032662001 -1.046
-0.32212001 0.032820001 -1.0511
-0.32053 0.032832999 -1.0515
-0.30528 0.033041 -1.0582
-0.29685 0.033036001 -1.058
-0.29344001 0.033027001 -1.0577
-0.26082999 0.032846 -1.0519
-0.25924 0.032855 -1.0522
-0.25764999 0.032864001 -1.0525
-0.25589001 0.032841999 -1.0518
-0.22043 0.032917999 -1.0542001
-0.21884 0.032924999 -1.0545
-0.21724001 0.032931998 -1.0547
-0.17942999 0.03325 -1.0649
-0.17791 0.033286002 -1.066
-0.1763 0.033289999 -1.0662
-0.11951 0.033137999 -1.0613
-0.11792 0.03317 -1.0623
-0.090563998 0.033333 -1.0675
-0.05655 0.033369001 -1.0687
-0.053360999 0.033333 -1.0675
0.054868001 0.034364998 -1.1006
0.056542002 0.034357 -1.1003
0.058695 0.034441002 -1.103
0.062540002 0.034515999 -1.1054
0.078553997 0.034588002 -1.1077
0.080239996 0.034577999 -1.1073999
0.081926003 0.034568001 -1.1071
0.096368998 0.034639999 -1.1094
0.098058 0.034630001 -1.1091
0.10272 0.034536999 -1.1061
0.10481 0.034587 -1.1077
0.10649 0.034575999 -1.1073
0.10818 0.034565002 -1.107
0.10986 0.034552999 -1.1066
0.11155 0.034542002 -1.1062
0.11344 0.034561001 -1.1069
0.11577 0.034641001 -1.1094
0.11746 0.034628998 -1.109
0.11915 0.034618001 -1.1087
0.12106 0.034635998 -1.1093
0.12567 0.034538999 -1.1062
0.12804 0.034618001 -1.1087
0.13018 0.034667 -1.1102
0.1321 0.034685001 -1.1108
0.13402 0.034703001 -1.1114
0.13548 0.03466 -1.11
0.13694 0.034616999 -1.1086
0.13862 0.034604002 -1.1082
0.14031 0.034591001 -1.1078
0.14296 0.034699 -1.1113
0.14489 0.034715999 -1.1118
0.14658999 0.034703001 -1.1114
0.14827999 0.03469 -1.1109999
0.14898001 0.034554999 -1.1066999
0.15042 0.034511998 -1.1052999
0.15260001 0.034559 -1.1068
0.15528999 0.034666002 -1.1102
0.15995 0.034789 -1.1142
0.16165 0.034775 -1.1137
0.16308001 0.034731001 -1.1123
0.16452 0.034685999 -1.1109
0.16673 0.034731999 -1.1123
0.16843 0.034717999 -1.1119
0.17012 0.034703001 -1.1114
0.17261 0.034779001 -1.1138
0.17431 0.034763999 -1.1134
0.17660999 0.034614 -1.1086
0.17803 0.034568999 -1.1071
0.17971 0.034554001 -1.1066
0.18306001 0.034719002 -1.1119
0.18475001 0.034704 -1.1114
0.18785 0.034837998 -1.1157
0.18785 0.034643002 -1.1095001
0.19011 0.034687001 -1.1109
0.1918 0.034672 -1.1104
0.19407 0.034715999 -1.1118
0.19691999 0.034818999 -1.1151
0.19860999 0.034802999 -1.1145999
0.20002 0.034756999 -1.1131001
0.20113 0.034681 -1.1107
0.20282 0.034665 -1.1102
0.2051 0.034708001 -1.1116
0.20829 0.034841001 -1.1158
0.21029 0.034853999 -1.1162
0.21199 0.034837 -1.1157
0.21308 0.034761 -1.1133
0.2174 0.034816001 -1.115
0.2194 0.034828 -1.1154
0.22079 0.034781002 -1.1138999
0.22342999 0.034853 -1.1162
0.22418 0.034747001 -1.1128
0.22619 0.034759 -1.1131999
0.22821 0.034770999 -1.1136
0.23118 0.034871001 -1.1168
0.23523 0.034894001 -1.1174999
0.23725 0.034906 -1.1179
0.23797999 0.034798998 -1.1145
0.24033 0.034839999 -1.1158
0.24236 0.034851 -1.1161
0.24405999 0.034832001 -1.1155
0.24642 0.034871999 -1.1168
0.24778999 0.034823999 -1.1153001
0.24948999 0.034805 -1.1147
0.25185999 0.034844998 -1.1160001
0.25323001 0.034797002 -1.1144
0.25525999 0.034807 -1.1147
0.25832999 0.034905002 -1.1179
0.26038 0.034915 -1.1181999
0.26413 0.034905002 -1.1179
0.26583001 0.034885 -1.1172
0.26859 0.034952998 -1.1194
0.27063999 0.034963001 -1.1197
0.27235001 0.034942999 -1.1191
0.27263999 0.034805998 -1.1147
0.27397999 0.034756001 -1.1131001
0.27746001 0.034882002 -1.1171
0.27989 0.03492 -1.1183
0.28536001 0.034887001 -1.1173
0.28742999 0.034894999 -1.1174999
0.28913 0.034874 -1.1169
0.29365 0.034917999 -1.1183
0.29609999 0.034954999 -1.1195
0.29743001 0.034905002 -1.1179
0.29951 0.034912001 -1.1181
0.30120999 0.03489 -1.1174001
0.30368 0.034926001 -1.1186
0.30651999 0.034991 -1.1206
0.30860999 0.034998 -1.1208
0.30917001 0.034889001 -1.1174001
0.31126001 0.034896001 -1.1176
0.31529 0.035046 -1.1224
0.317 0.035023998 -1.1217
0.31793001 0.034944002 -1.1191
0.31924 0.034892 -1.1174999
0.32093999 0.034869999 -1.1167001
0.32462001 0.034990001 -1.1206
0.32633001 0.034967002 -1.1199
0.32804 0.034944002 -1.1191
0.32973999 0.034921002 -1.1184
0.33346 0.035039999 -1.1222
0.33517 0.035016999 -1.1215
0.33607 0.034936 -1.1188999
0.33776999 0.034913 -1.1181
0.34029001 0.034945998 -1.1192
0.34323001 0.035007 -1.1212
0.34494001 0.034983002 -1.1204
0.34663999 0.034959 -1.1196001
0.34918001 0.034991998 -1.1207
0.35172001 0.035023998 -1.1217
0.35685 0.034951001 -1.1193
0.36409 0.035016999 -1.1215
0.37180001 0.035110001 -1.1245
0.39460999 0.035075001 -1.1233
0.39631999 0.035048001 -1.1224999
0.39848 0.035048999 -1.1224999
0.40154999 0.035106 -1.1243
0.41027999 0.03472 -1.1119
0.41244 0.03472 -1.1119
0.41506001 0.034747001 -1.1128
0.41723001 0.034747001 -1.1128
0.41892001 0.034719002 -1.1119
0.42107999 0.034717999 -1.1119
0.42278001 0.03469 -1.1109999
0.42636001 0.034770999 -1.1136
0.42806 0.034743 -1.1127
0.43022999 0.034742001 -1.1126
0.43191999 0.034713 -1.1117001
0.43505999 0.034766 -1.1134
0.43724 0.034763999 -1.1134
0.43990001 0.034790002 -1.1142
0.44402 0.034897 -1.1176
-0.57870001 0.033388 -1.0361
-0.57542002 0.033553999 -1.0412
-0.57244003 0.033496 -1.0394
-0.57088 0.033523001 -1.0402
-0.56698 0.033406999 -1.0367
-0.56274998 0.033514 -1.04
-0.55308002 0.033528998 -1.0404
-0.55150998 0.033555001 -1.0412
-0.54658002 0.033489998 -1.0391999
-0.54074001 0.03362 -1.0433
-0.52781999 0.033535 -1.0405999
-0.52511001 0.033613 -1.043
-0.51196998 0.033633001 -1.0437
-0.50010002 0.033735 -1.0468
-0.49851999 0.033757001 -1.0475
-0.49294999 0.033624999 -1.0434
-0.4874 0.033493001 -1.0393
-0.48190001 0.033778999 -1.0482
-0.47993001 0.033771001 -1.048
-0.47795999 0.033762999 -1.0477
-0.46059999 0.033852998 -1.0505
-0.38586 0.033725001 -1.0465
-0.38398001 0.033711001 -1.0461
-0.38299999 0.033787999 -1.0484999
-0.38043001 0.033882 -1.0513999
-0.37724999 0.033914 -1.0524
-0.37349001 0.033883002 -1.0513999
-0.37160999 0.033868 -1.051
-0.33682999 0.034017 -1.0556
-0.33473 0.033968002 -1.0541
-0.33289 0.033950001 -1.0535001
-0.32945001 0.033945002 -1.0534
-0.32688001 0.033833001 -1.0499001
-0.32030001 0.033852998 -1.0505
-0.31799999 0.033771001 -1.048
-0.29344001 0.034085002 -1.0577
-0.28323001 0.033792 -1.0486
-0.28005999 0.033813 -1.0493
-0.26225001 0.034152001 -1.0598
-0.22982 0.034256 -1.063
-0.2207 0.034035999 -1.0562
-0.20791 0.034088999 -1.0578001
-0.17782 0.034320001 -1.0650001
-0.14711 0.034357999 -1.0662
-0.14549001 0.034359999 -1.0662
-0.14383 0.034331001 -1.0653
-0.13089 0.034317002 -1.0649
-0.11477 0.034331001 -1.0653
-0.085800998 0.034173999 -1.0605
-0.058334999 0.034311 -1.0647
-0.056724001 0.034309 -1.0646
-0.053408001 0.034368001 -1.0664999
-0.051842 0.034333002 -1.0654
0.10251 0.035611 -1.1051
0.10522 0.035757001 -1.1095999
0.10691 0.035746001 -1.1092
0.10859 0.035734002 -1.1089
0.10986 0.035659999 -1.1066
0.11134 0.035617001 -1.1052001
0.11302 0.035604998 -1.1049
0.11703 0.035675999 -1.1071
0.11915 0.035726 -1.1086
0.12172 0.035840001 -1.1122
0.12341 0.035827 -1.1118
0.1251 0.035815001 -1.1114
0.12635 0.035739999 -1.1091
0.12804 0.035727002 -1.1087
0.13286 0.035657 -1.1065
0.13455001 0.035643999 -1.1061
0.13647 0.035663001 -1.1066999
0.13862 0.035712 -1.1082
0.14272 0.035778999 -1.1102999
0.14392 0.035703 -1.1079
0.14561 0.035689998 -1.1075
0.14754 0.035707001 -1.108
0.14948 0.035725001 -1.1086
0.15116 0.035711002 -1.1081001
0.15360001 0.03579 -1.1106
0.16231 0.035750002 -1.1094
0.16647001 0.035813998 -1.1113
0.16843 0.035829999 -1.1118
0.17145 0.035969999 -1.1162
0.17315 0.035955001 -1.1157
0.17485 0.035939999 -1.1153001
0.17885 0.035769999 -1.11
0.18081 0.035785001 -1.1105
0.18278 0.035799999 -1.1109
0.18447 0.035783999 -1.1104
0.18644001 0.035799 -1.1109
0.18842 0.035813998 -1.1114
0.19011 0.035797998 -1.1109
0.19237 0.035843998 -1.1123
0.19521999 0.035951 -1.1156
0.19691999 0.035934001 -1.1151
0.19860999 0.035918001 -1.1145999
0.19856 0.035716001 -1.1083
0.20172 0.035854001 -1.1126
0.20458999 0.03596 -1.1159
0.20659 0.035974 -1.1163
0.20769 0.035895001 -1.1138999
0.20879 0.035815999 -1.1114
0.20957001 0.035707001 -1.108
0.21338999 0.035905 -1.1142
0.21539 0.035918001 -1.1145999
0.2177 0.035960998 -1.1159
0.2194 0.035944 -1.1154
0.22017001 0.035834 -1.112
0.22217999 0.035847001 -1.1124001
0.22418 0.035859 -1.1128
0.22713999 0.035964001 -1.1160001
0.22916 0.035976 -1.1164
0.23118 0.035987999 -1.1168
0.23192 0.035877999 -1.1133
0.23265 0.035767999 -1.1099
0.23466 0.035780001 -1.1102999
0.23896 0.036005002 -1.1173
0.24099 0.036015999 -1.1176
0.24236 0.035967 -1.1161
0.24339999 0.035886999 -1.1136
0.24476001 0.035836998 -1.1121
0.24713001 0.035879001 -1.1134
0.24916001 0.035890002 -1.1137
0.25253999 0.036022 -1.1178
0.25323001 0.035911001 -1.1144
0.25593999 0.035982002 -1.1166
0.25764 0.035962 -1.1160001
0.25968999 0.035973001 -1.1163
0.26139 0.035953 -1.1157
0.26309001 0.035932001 -1.115
0.26618001 0.036033001 -1.1181
0.26789001 0.036012001 -1.1174999
0.26958999 0.035992 -1.1169
0.27094001 0.035941001 -1.1153001
0.27298999 0.035950001 -1.1156
0.27505001 0.03596 -1.1159
0.27853999 0.036088999 -1.1199
0.27989 0.036038 -1.1183
0.28159001 0.036017001 -1.1176
0.28329 0.035994999 -1.117
0.28573 0.036033999 -1.1181999
0.28780001 0.036042001 -1.1184
0.2895 0.036021002 -1.1178
0.29328001 0.036006998 -1.1173
0.29534999 0.036015 -1.1176
0.29780999 0.036052 -1.1188
0.29951 0.036029998 -1.1181
0.30120999 0.036008 -1.1174001
0.30329999 0.036015 -1.1176
0.30651999 0.036111999 -1.1206
0.30899999 0.036148001 -1.1217
0.30954999 0.036036 -1.1183
0.31126001 0.036014002 -1.1174999
0.31373999 0.036049999 -1.1187
0.317 0.036145002 -1.1216
0.31871 0.036122002 -1.1209
0.32001999 0.036068998 -1.1193
0.32172999 0.036045998 -1.1185
0.32580999 0.036200002 -1.1233
0.32832 0.036235001 -1.1244
0.33002999 0.036210999 -1.1237
0.33054 0.036098 -1.1202
0.33225 0.036074001 -1.1194
0.33436 0.036079001 -1.1196001
0.33647001 0.036084998 -1.1198
0.33776999 0.036031 -1.1181
0.3407 0.036093999 -1.1201
0.34323001 0.036129002 -1.1210999
0.34452 0.036074001 -1.1194
0.34705999 0.036107998 -1.1205
0.34918001 0.036113001 -1.1206
0.3513 0.036116999 -1.1207
0.36238 0.036164001 -1.1222
0.36409 0.036139 -1.1214
0.36623001 0.036141999 -1.1215
0.39506 0.036226999 -1.1242
0.39677 0.036199 -1.1233
0.39894 0.036200002 -1.1233
0.40154999 0.036230002 -1.1243
0.41027999 0.035831999 -1.1119
0.41244 0.035831999 -1.1119
0.41600001 0.035916999 -1.1145
0.41815999 0.035916001 -1.1145
0.41845 0.035801999 -1.1109999
0.42014 0.035773002 -1.1101
0.42278001 0.035801001 -1.1109
0.42684001 0.035913002 -1.1144
0.42901 0.035912 -1.1144
0.43070999 0.035882 -1.1135
0.43336001 0.035909001 -1.1143
0.43505999 0.035879001 -1.1134
0.43772 0.035905998 -1.1142
0.43990001 0.035904001 -1.1141
0.44352999 0.035985999 -1.1167001
-0.59249997 0.03438 -1.0353
-0.57041001 0.034513 -1.0393
-0.55061001 0.034515999 -1.0394
-0.54993999 0.034600999 -1.0420001
-0.54746997 0.034568001 -1.041
-0.53898001 0.034522999 -1.0396
-0.53296 0.034510002 -1.0391999
-0.52982002 0.034559999 -1.0408
-0.52695 0.034495 -1.0388
-0.52625 0.03458 -1.0414
-0.52468002 0.034605 -1.0421
-0.51155001 0.034625001 -1.0427001
-0.50872999 0.034559 -1.0407
-0.50476003 0.034545999 -1.0403
-0.49214 0.034588002 -1.0416
-0.41982001 0.034967002 -1.053
-0.41756001 0.034922998 -1.0517
-0.41597 0.034942001 -1.0522
-0.41339999 0.034866001 -1.05
-0.41148001 0.034853 -1.0496
-0.40827 0.034713998 -1.0454
-0.38646999 0.034814999 -1.0484
-0.37854001 0.034897 -1.0509
-0.37724999 0.034945 -1.0524
-0.37507001 0.034898002 -1.0509
-0.33129001 0.034995999 -1.0539
-0.32969999 0.035009999 -1.0543
-0.32811001 0.035023 -1.0547
-0.32260001 0.034965999 -1.053
-0.32077 0.034947 -1.0524
-0.31871 0.034894999 -1.0509
-0.31711999 0.034908 -1.0512
-0.28382999 0.034917001 -1.0515
-0.28224 0.034928001 -1.0518
-0.28044999 0.034906 -1.0512
-0.27886999 0.034917001 -1.0515
-0.26508999 0.035106 -1.0572
-0.25904 0.035209 -1.0603
-0.25744 0.035218999 -1.0606
-0.25582999 0.035227999 -1.0609
-0.22679999 0.034977 -1.0533
-0.20964 0.035153002 -1.0585999
-0.20803 0.035158999 -1.0588
-0.16638 0.035328001 -1.0639
-0.14861 0.035333 -1.064
-0.14539 0.035339002 -1.0642
-0.14377999 0.035342 -1.0642999
-0.14212 0.035310999 -1.0634
-0.13249999 0.035358999 -1.0648
-0.13091999 0.035394002 -1.0659
-0.12928 0.035363 -1.0649
-0.11638 0.035374999 -1.0653
-0.077739999 0.035275001 -1.0623
-0.061558001 0.035358999 -1.0648
-0.056681 0.035385001 -1.0656
-0.050129 0.035441 -1.0673
-0.017335 0.035567001 -1.0711
0.0015847 0.03534 -1.0642
0.0051342002 0.035427 -1.0669
0.060568001 0.035638999 -1.0732
0.094962001 0.036033999 -1.0851001
0.13839 0.036766 -1.1072
0.14439 0.036614001 -1.1026
0.14656 0.036665 -1.1041
0.16126999 0.036708999 -1.1055
0.16568001 0.036807001 -1.1084
0.16843 0.03692 -1.1118
0.17634 0.036777999 -1.1075
0.17803 0.036761999 -1.1071
0.18054 0.036842 -1.1095001
0.18306001 0.036920998 -1.1119
0.1918 0.036871001 -1.1102999
0.19407 0.036917001 -1.1117001
0.19663 0.036996 -1.1141
0.19832 0.036979001 -1.1136
0.19944 0.036897998 -1.1112
0.20113 0.036881 -1.1106
0.20341 0.036927 -1.112
0.2054 0.036940999 -1.1125
0.20709001 0.036924001 -1.1119
0.20879 0.036906 -1.1114
0.20987999 0.036825001 -1.109
0.21308 0.036965001 -1.1131999
0.21478 0.036947001 -1.1126
0.2174 0.037023999 -1.1149
0.2194 0.037037 -1.1153001
0.2211 0.037018999 -1.1148
0.22217999 0.036936998 -1.1123
0.22356001 0.036887001 -1.1108
0.22852001 0.037007 -1.1144
0.23054001 0.037020002 -1.1148
0.23192 0.036968999 -1.1133
0.23329 0.036919001 -1.1118
0.23758 0.037151001 -1.1188
0.23961 0.037163001 -1.1191
0.24131 0.037142999 -1.1185
0.24236 0.037060998 -1.1161
0.24339999 0.036977999 -1.1136
0.24377 0.036832999 -1.1092
0.24612001 0.036876 -1.1105
0.24815001 0.036888 -1.1108
0.25220001 0.037085999 -1.1168
0.25389999 0.037066001 -1.1162
0.25492001 0.036982998 -1.1137
0.25696 0.036993999 -1.114
0.25830999 0.036942001 -1.1125
0.26104 0.037014998 -1.1147
0.26309001 0.037025001 -1.115
0.26653001 0.037160002 -1.119
0.26684001 0.037014998 -1.1147
0.26853001 0.036993001 -1.114
0.27057999 0.037002999 -1.1143
0.2737 0.037106 -1.1174001
0.27575999 0.037115999 -1.1177
0.27711001 0.037062999 -1.1161
0.27845001 0.037009999 -1.1145
0.28014001 0.036988001 -1.1138999
0.28329 0.03709 -1.1169
0.28608999 0.037161 -1.1191
0.28742999 0.037108 -1.1174999
0.28803 0.036993001 -1.114
0.29045999 0.037032001 -1.1152
0.29365 0.037133001 -1.1181999
0.29609999 0.037172001 -1.1194
0.29780999 0.037149001 -1.1187
0.29800999 0.037002999 -1.1143
0.30046001 0.037041999 -1.1155
0.30329999 0.037110999 -1.1176
0.30576 0.037149001 -1.1187
0.30746999 0.037124999 -1.118
0.30879 0.037071001 -1.1164
0.31049001 0.037048001 -1.1157
0.31334999 0.037115999 -1.1177
0.317 0.037245002 -1.1216
0.31871 0.037221 -1.1209
0.32001999 0.037165999 -1.1192
0.32093999 0.037080999 -1.1167001
0.32304001 0.037087001 -1.1169
0.32633001 0.037184998 -1.1198
0.32962999 0.037282001 -1.1227
0.33013999 0.037165999 -1.1192
0.33184999 0.037140999 -1.1185
0.33436 0.037177 -1.1196001
0.33688 0.037213001 -1.1206
0.33818001 0.037156999 -1.119
0.33987999 0.037131999 -1.1181999
0.34118 0.037076 -1.1165
0.34369999 0.037110999 -1.1176
0.34582001 0.037115999 -1.1177
0.34834999 0.037151001 -1.1188
0.35089001 0.037184998 -1.1198
0.35301 0.037188999 -1.1199
0.36322999 0.037324999 -1.124
0.36493999 0.037298001 -1.1232001
0.36664999 0.037271 -1.1224
0.36794001 0.037214 -1.1207
0.36963999 0.037186999 -1.1199
0.37134999 0.037160002 -1.1191
0.37391999 0.037193 -1.12
0.38338 0.037262 -1.1221
0.38508999 0.037234001 -1.1213
0.38725001 0.037236001 -1.1213
0.38984999 0.037266999 -1.1223
0.39199999 0.037268002 -1.1223
0.39370999 0.037239999 -1.1215
0.39453 0.037152 -1.1188
0.39713001 0.037183002 -1.1197
0.41121 0.036979999 -1.1136
0.41196999 0.036892001 -1.1109999
0.41460001 0.036920998 -1.1119
0.41628999 0.036892001 -1.1109999
0.41797999 0.036862001 -1.1101
0.41966999 0.036832001 -1.1092
0.42183 0.036830999 -1.1091
0.42493999 0.036889002 -1.1109
0.42806 0.036945999 -1.1126
0.43070999 0.036974002 -1.1134
0.43239999 0.036943 -1.1125
0.43505999 0.036970999 -1.1134
0.43674999 0.036940001 -1.1124001
0.43845001 0.036908999 -1.1115
0.44159001 0.036965001 -1.1131999
0.44523001 0.037050001 -1.1157
-0.58385998 0.035342 -1.0344
-0.53426999 0.035599999 -1.0419
-0.52582002 0.035549998 -1.0404
-0.51354003 0.035633001 -1.0429
-0.49643999 0.035486002 -1.0386
-0.44571999 0.035870999 -1.0498
-0.44183999 0.035847999 -1.0492001
-0.41914999 0.035914 -1.0511
-0.41018 0.035732001 -1.0458
-0.40827 0.035718001 -1.0454
-0.37606999 0.035824999 -1.0484999
-0.35751 0.035870999 -1.0498
-0.35674 0.035985 -1.0532
-0.35541999 0.036033999 -1.0546
-0.35356 0.036015999 -1.0541
-0.32995 0.036054999 -1.0552
-0.32835001 0.036068998 -1.0556
-0.32651001 0.036049999 -1.0551
-0.32260001 0.035978001 -1.053
-0.32100999 0.035990998 -1.0533
-0.31918001 0.035971001 -1.0528001
-0.28422999 0.035994001 -1.0534
-0.28284001 0.036038999 -1.0547
-0.28084999 0.035983 -1.0531
-0.27669001 0.035836998 -1.0488
-0.27511001 0.035847999 -1.0491
-0.25321999 0.036054 -1.0552
-0.25145999 0.036029998 -1.0545
-0.23142 0.035930999 -1.0516
-0.22998001 0.035973001 -1.0528001
-0.2281 0.035913002 -1.0511
-0.22623 0.035852998 -1.0493
-0.22479001 0.035895001 -1.0505
-0.20987999 0.036237001 -1.0605
-0.20815 0.036210001 -1.0597
-0.20643 0.036183 -1.0589
-0.20472001 0.036155 -1.0581
-0.17612 0.036357 -1.0641
-0.17137 0.036405001 -1.0655
-0.16814999 0.036414001 -1.0657001
-0.16646001 0.036384001 -1.0648
-0.15987 0.036332 -1.0633
-0.15813001 0.036267001 -1.0614001
-0.15652999 0.036270998 -1.0615
-0.15498 0.036308002 -1.0626
-0.15338001 0.036311999 -1.0627
-0.14683001 0.036256 -1.0611
-0.14352 0.036194 -1.0592999
-0.14032 0.036199 -1.0594
-0.13867 0.036166999 -1.0585001
-0.13716 0.036238 -1.0606
-0.13555001 0.03624 -1.0606
-0.13237999 0.036279 -1.0618
-0.13078 0.036281001 -1.0618
-0.12917 0.036283001 -1.0619
-0.12756 0.036285002 -1.0619
-0.12599 0.036320999 -1.063
-0.12438 0.036322001 -1.063
-0.11792 0.036293998 -1.0622
-0.088964999 0.036403 -1.0654
-0.087352999 0.036403 -1.0654
-0.082515001 0.036401 -1.0653
-0.076110996 0.036327999 -1.0632
-0.071313001 0.036290001 -1.0621001
-0.063060001 0.036486 -1.0678
-0.053454999 0.036403999 -1.0654
-0.051842 0.036401 -1.0653
-0.048565 0.036430001 -1.0662
-0.046843 0.036495 -1.0681
-0.016147999 0.036421001 -1.0659
-0.012831 0.036444999 -1.0666
-0.0095078005 0.036469001 -1.0673
0.027292 0.036669001 -1.0732
0.057314001 0.036688998 -1.0738
0.059601001 0.036814 -1.0774
0.061067998 0.036770999 -1.0762
0.062362 0.036694001 -1.0739
0.063648999 0.036617 -1.0717
0.11729 0.036807001 -1.0772001
0.11937 0.036860999 -1.0788
0.19378 0.037951998 -1.1107
0.19605 0.037999999 -1.1122
0.19716001 0.037918001 -1.1097
0.19885001 0.037900001 -1.1092
0.19994999 0.037817001 -1.1068
0.20223001 0.037865002 -1.1082
0.2054 0.038010001 -1.1124001
0.20769 0.038056999 -1.1138
0.20969 0.038070999 -1.1142
0.21048 0.037955001 -1.1108
0.21278 0.038001999 -1.1122
0.21447 0.037983 -1.1117001
0.21709 0.038061999 -1.114
0.21971001 0.038141001 -1.1163
0.2211 0.038089 -1.1148
0.22249 0.038038 -1.1133
0.23022 0.038058002 -1.1138
0.23224001 0.038070999 -1.1142
0.24476001 0.037994999 -1.112
0.24646001 0.037974998 -1.1114
0.24882001 0.038019001 -1.1127
0.25185999 0.038127001 -1.1159
0.25323001 0.038074002 -1.1143
0.25457999 0.038020998 -1.1127
0.25661999 0.038031999 -1.1131001
0.25865999 0.038043 -1.1134
0.26139 0.038118001 -1.1156
0.26378 0.03816 -1.1168
0.26479 0.038075 -1.1143
0.26649001 0.038052998 -1.1137
0.26853001 0.038063001 -1.114
0.27129 0.038137 -1.1162
0.27406001 0.038210999 -1.1183
0.27505001 0.038125001 -1.1158
0.27675 0.038102999 -1.1152
0.27772999 0.038017001 -1.1126
0.28051001 0.038090002 -1.1148
0.28365999 0.038194999 -1.1178
0.28463 0.038109001 -1.1153001
0.28670001 0.038116999 -1.1156
0.28803 0.038063001 -1.114
0.29120001 0.038167 -1.117
0.29365 0.038206998 -1.1181999
0.29534999 0.038183998 -1.1174999
0.29631001 0.038097002 -1.115
0.29800999 0.038073 -1.1143
0.30083999 0.038144998 -1.1164
0.30254 0.038121 -1.1157
0.30500001 0.03816 -1.1168
0.30708 0.038167998 -1.117
0.30879 0.038144 -1.1163
0.31049001 0.038118999 -1.1156
0.31257001 0.038125999 -1.1158
0.31544 0.038196001 -1.1179
0.31793001 0.038235001 -1.119
0.31924 0.038178001 -1.1174001
0.32014999 0.038091 -1.1148
0.32264 0.038129002 -1.1159
0.32514 0.038166001 -1.117
0.32804 0.038235001 -1.119
0.32973999 0.038210001 -1.1183
0.33184999 0.038215 -1.1184
0.33517 0.038314998 -1.1214
0.33647001 0.038258001 -1.1197
0.33818001 0.038231999 -1.1188999
0.34029001 0.038237002 -1.1191
0.34200001 0.038210999 -1.1183
0.34411001 0.038215999 -1.1185
0.34582001 0.038189001 -1.1177
0.34834999 0.038224999 -1.1187
0.35214001 0.038353998 -1.1224999
0.35385001 0.038327001 -1.1217
0.35811001 0.038334999 -1.1219
0.36024001 0.038339 -1.1221
0.3628 0.038373001 -1.1231
0.36409 0.038314998 -1.1214
0.36623001 0.038318001 -1.1215
0.36836001 0.038321 -1.1215
0.37007001 0.038293999 -1.1207
0.37178001 0.038265999 -1.1199
0.37349001 0.038238 -1.1191
0.37606999 0.038270999 -1.1201
0.38079 0.038307 -1.1210999
0.38382 0.038369998 -1.123
0.38642001 0.038403001 -1.1239001
0.38813001 0.038373999 -1.1231
0.39028999 0.038376 -1.1231
0.39199999 0.038346 -1.1223
0.39416 0.038348 -1.1223
0.39542001 0.038288001 -1.1206
0.39713001 0.038259 -1.1197
0.40064999 0.038350999 -1.1224
0.40981999 0.037958998 -1.1109
0.41196999 0.037958998 -1.1109
0.41319999 0.037898999 -1.1092
0.41488999 0.037868001 -1.1083
0.41797999 0.037928 -1.11
0.41966999 0.037896998 -1.1091
0.42278001 0.037957001 -1.1109
0.42447001 0.037926 -1.11
0.42710999 0.037955001 -1.1108
0.43022999 0.038013 -1.1125
0.43191999 0.037981998 -1.1116
0.43362001 0.037950002 -1.1107
0.43579 0.037949 -1.1106
0.43796 0.037946999 -1.1106
0.44255999 0.038093999 -1.1149
0.44523001 0.038121 -1.1157
-0.52182001 0.036578 -1.0401
-0.52025002 0.036603998 -1.0408
-0.51826 0.036598001 -1.0405999
-0.47876 0.036754999 -1.0451
-0.46976 0.036621001 -1.0413001
-0.44148001 0.036864001 -1.0482
-0.43955001 0.036851998 -1.0479
-0.41018 0.036777001 -1.0457
-0.37735999 0.036823001 -1.0470001
-0.37637001 0.036906999 -1.0494
-0.37507001 0.036958002 -1.0509
-0.35881001 0.036871001 -1.0484
-0.34296 0.036807999 -1.0466
-0.32995 0.037110001 -1.0552
-0.32835001 0.037124 -1.0556
-0.32627001 0.037069999 -1.0541
-0.32260001 0.03703 -1.0529
-0.32100999 0.037044 -1.0533
-0.31918001 0.037023 -1.0527
-0.2888 0.036977999 -1.0513999
-0.28720999 0.036989 -1.0518
-0.28582001 0.037035 -1.0531
-0.28422999 0.037046999 -1.0534
-0.28264001 0.037058 -1.0537
-0.28105 0.037069999 -1.054
-0.27588001 0.037034001 -1.053
-0.27429 0.037044998 -1.0533
-0.26932999 0.037043002 -1.0533
-0.24126001 0.037 -1.0520999
-0.23936 0.036938999 -1.0503
-0.23793 0.036982998 -1.0516
-0.23634 0.036991 -1.0518
-0.2349 0.037035 -1.053
-0.23331 0.037043002 -1.0533
-0.23172 0.037051 -1.0535001
-0.23012 0.03706 -1.0538
-0.21668001 0.037372999 -1.0627
-0.21469 0.037276 -1.0599
-0.21321 0.037317999 -1.0611
-0.21148001 0.037289999 -1.0603
-0.20999999 0.037331998 -1.0615
-0.20791 0.037199002 -1.0577
-0.20608 0.037136 -1.0559
-0.16113 0.037214998 -1.0582
-0.15953 0.037218999 -1.0583
-0.15147001 0.037202001 -1.0578001
-0.14838 0.037278 -1.0599999
-0.14683001 0.037317 -1.0611
-0.14523 0.037319999 -1.0612
-0.1406 0.037469 -1.0654
-0.13902999 0.037505999 -1.0664999
-0.13755 0.037613999 -1.0695
-0.13593 0.037617002 -1.0696
-0.13427 0.037583999 -1.0687
-0.13091999 0.037482999 -1.0658
-0.1276 0.037381001 -1.0628999
-0.11465 0.037253 -1.0592
-0.090577997 0.037469 -1.0654
-0.088939004 0.037574001 -1.0684
-0.087320998 0.037572999 -1.0684
-0.085716002 0.037537001 -1.0673
-0.079232998 0.037569001 -1.0682
-0.077678002 0.037462 -1.0652
-0.061365999 0.037620999 -1.0697
-0.059826002 0.037549 -1.0677
-0.058293 0.037475999 -1.0656
-0.056681 0.037473999 -1.0655
-0.055068001 0.037471 -1.0655
-0.053454999 0.037469 -1.0654
-0.023983 0.037615001 -1.0695
-0.022203 0.03768 -1.0714
-0.020416001 0.037746001 -1.0733
-0.018789999 0.037741002 -1.0731
-0.017248999 0.037701 -1.072
-0.015712 0.037661001 -1.0709
-0.012559 0.037616 -1.0696
-0.010939 0.037611 -1.0694
0.058130998 0.037935 -1.0786999
0.059765998 0.037926 -1.0784
0.061402 0.037916001 -1.0781
0.063036002 0.037905999 -1.0778
0.066303998 0.037886001 -1.0773
0.067415997 0.037772 -1.074
0.068692997 0.037693001 -1.0718
0.091536 0.037863001 -1.0766
0.097652003 0.037746999 -1.0733
0.099689998 0.037804 -1.0749
0.11358 0.037841 -1.076
0.11521 0.037827998 -1.0756
0.11729 0.037882999 -1.0772001
0.11915 0.037905 -1.0778
0.15403 0.037925001 -1.0784
0.17363 0.037951998 -1.0791
0.17555 0.037969001 -1.0796
0.24579 0.039019998 -1.1095001
0.24916001 0.039163999 -1.1136
0.25152999 0.039209001 -1.1149
0.25255001 0.039120998 -1.1124001
0.25356001 0.039034002 -1.1099
0.25628 0.039111 -1.1121
0.25865999 0.039156001 -1.1134
0.26172999 0.039266001 -1.1165
0.2624 0.039145 -1.113
0.26374 0.03909 -1.1115
0.26543 0.039067999 -1.1109
0.26853001 0.039177001 -1.114
0.27129 0.039253 -1.1161
0.27298999 0.03923 -1.1155
0.27845001 0.039195001 -1.1145
0.28123 0.039269999 -1.1166
0.28292999 0.039246999 -1.1159
0.28389999 0.039158002 -1.1134
0.28560001 0.039133999 -1.1127
0.28876001 0.039241999 -1.1158
0.29194 0.039347999 -1.1188
0.29328001 0.039292 -1.1172
0.29460999 0.039235 -1.1156
0.29837999 0.039220002 -1.1152
0.30046001 0.039228 -1.1154
0.30215999 0.039202999 -1.1147
0.30423999 0.039211001 -1.1149
0.30632001 0.039218999 -1.1152
0.30879 0.039259002 -1.1163
0.31126001 0.039299 -1.1174001
0.31296 0.039274 -1.1167001
0.31466001 0.039248999 -1.1160001
0.31674999 0.039255999 -1.1162
0.31885001 0.039262999 -1.1164
0.32014999 0.039205 -1.1148
0.32264 0.039244 -1.1159
0.32554001 0.039315 -1.1179
0.32684001 0.039257001 -1.1162
0.32934001 0.039294999 -1.1173
0.33103999 0.039269 -1.1166
0.33396 0.039338998 -1.1186
0.33647001 0.039377 -1.1196001
0.33858001 0.039382 -1.1198
0.34029001 0.039354999 -1.119
0.34241 0.039361 -1.1192
0.34369999 0.039301999 -1.1174999
0.34540001 0.039275002 -1.1167001
0.34711 0.039246999 -1.1160001
0.35297 0.03954 -1.1243
0.35468 0.039512001 -1.1235
0.35429999 0.039324999 -1.1181999
0.35685 0.039361 -1.1192
0.35898 0.039365001 -1.1193
0.36153001 0.0394 -1.1203001
0.36280999 0.039340001 -1.1186
0.36409 0.039280001 -1.1169
0.36708 0.039347 -1.1188
0.37007001 0.039414 -1.1207
0.37222001 0.039416999 -1.1208
0.37436 0.039420001 -1.1209
0.37650001 0.039422002 -1.1209
0.38255 0.039554 -1.1247
0.38514 0.039586999 -1.1256
0.38730001 0.039588999 -1.1257
0.38857999 0.039528001 -1.1239001
0.39028999 0.039498001 -1.1231
0.39199999 0.039468002 -1.1222
0.39370999 0.039438002 -1.1214
0.39587 0.039439 -1.1214
0.39713001 0.039377999 -1.1197
0.39974001 0.039409999 -1.1206
0.40935001 0.039037999 -1.11
0.41104001 0.039007001 -1.1091
0.41319999 0.039007001 -1.1091
0.41582 0.039037999 -1.11
0.41703999 0.038975 -1.1082
0.41966999 0.039005999 -1.1091
0.42324999 0.039097998 -1.1117001
0.42493999 0.039066002 -1.1108
0.42662999 0.039034002 -1.1099
0.43070999 0.039156001 -1.1134
0.43048999 0.039000001 -1.1089
0.43314001 0.039030001 -1.1098
0.43483001 0.038996998 -1.1088001
0.43893 0.039117999 -1.1123
0.44062001 0.039085001 -1.1114
-0.47095001 0.037645001 -1.0397
-0.37507001 0.038049001 -1.0508
-0.32554001 0.038059998 -1.0511
-0.32394999 0.038074002 -1.0515
-0.31895 0.038081001 -1.0517
-0.31759 0.038130999 -1.0531
-0.29039001 0.038056999 -1.0511
-0.28839001 0.037999 -1.0494
-0.287 0.038045999 -1.0506999
-0.28521001 0.038022999 -1.0501
-0.28402999 0.038105998 -1.0524
-0.28224 0.038082 -1.0517
-0.28084999 0.038129002 -1.053
-0.27645999 0.038233999 -1.0559
-0.27485999 0.038245998 -1.0562
-0.27307999 0.038221002 -1.0556
-0.24316999 0.038155001 -1.0537
-0.2411 0.038056999 -1.051
-0.22389001 0.038222998 -1.0556
-0.22228999 0.038231 -1.0558
-0.21789999 0.038362 -1.0594
-0.21616 0.038332999 -1.0587
-0.21431001 0.038268998 -1.0569
-0.20964 0.038327001 -1.0585001
-0.17694999 0.038196001 -1.0549001
-0.17544 0.038237002 -1.056
-0.17376 0.038206 -1.0552
-0.17217 0.038210999 -1.0553
-0.17049 0.038180001 -1.0544
-0.16881999 0.038148001 -1.0536
-0.15165 0.038408998 -1.0608
-0.15004 0.038412001 -1.0608
-0.14844 0.038415 -1.0609
-0.14689 0.038454998 -1.062
-0.14533 0.038493998 -1.0631
-0.090605997 0.038430002 -1.0614001
-0.089000002 0.038430002 -1.0613
-0.087362997 0.038538001 -1.0642999
-0.085763998 0.038500998 -1.0633
-0.084155001 0.0385 -1.0633
-0.071116999 0.038708001 -1.069
-0.069527999 0.03867 -1.068
-0.067910999 0.038667999 -1.0678999
-0.066294 0.038665999 -1.0678999
-0.064641997 0.038699999 -1.0688
-0.063023001 0.038697999 -1.0687
-0.061480999 0.038624 -1.0667
-0.059866 0.038621001 -1.0666
-0.058293 0.038582999 -1.0656
-0.053360999 0.038647 -1.0673
-0.051794 0.038608 -1.0663
-0.050129 0.038642 -1.0671999
-0.022363 0.038720999 -1.0694
-0.018874001 0.038819 -1.0721
-0.017163999 0.038849998 -1.073
-0.015625 0.038809001 -1.0718
-0.012559 0.038727 -1.0695
-0.010847 0.038757 -1.0704
0.00049648999 0.038717002 -1.0693001
0.0036269 0.038667999 -1.0678999
0.0050245002 0.038589999 -1.0658
0.0082505001 0.038577002 -1.0654
0.010093 0.038642 -1.0671999
0.035982002 0.038959 -1.076
0.039244 0.038942002 -1.0755
0.046778001 0.038755 -1.0703
0.062362 0.038883001 -1.0738
0.063989997 0.038872998 -1.0736001
0.065788001 0.038897999 -1.0743001
0.067415997 0.038888 -1.074
0.069044001 0.038876999 -1.0737
0.093167998 0.038968999 -1.0762
0.099072002 0.038814001 -1.0719
0.11195 0.038972002 -1.0763
0.11424 0.039064001 -1.0789
0.11588 0.039051 -1.0785
0.11796 0.039108001 -1.0801001
0.1196 0.039094001 -1.0797
0.15188 0.038991001 -1.0768
0.15324999 0.038940001 -1.0754
0.15566 0.039028998 -1.0779001
0.15808 0.039117999 -1.0803
0.15998 0.039136 -1.0808001
0.16981 0.039037 -1.0781
0.17555 0.03909 -1.0796
0.19977 0.039202999 -1.0827
0.20111001 0.03915 -1.0812
0.20275 0.039131001 -1.0807
0.20468999 0.039145999 -1.0811
0.20664001 0.039161999 -1.0815001
0.21085 0.039225999 -1.0833
0.21280999 0.039241001 -1.0836999
0.21766999 0.039372999 -1.0874
0.21964 0.039388001 -1.0878
0.22459 0.039326999 -1.0861
0.24243 0.039446998 -1.0894001
0.29045999 0.040376 -1.1151
0.29253 0.040385 -1.1153001
0.29312 0.040259998 -1.1119
0.30401999 0.040176999 -1.1095999
0.30932999 0.040293001 -1.1128
0.31141001 0.0403 -1.113
0.31310999 0.040275 -1.1123
0.31441 0.040215001 -1.1106
0.31648999 0.040222999 -1.1108
0.31975999 0.040329002 -1.1138
0.32225001 0.040369 -1.1149
0.32433999 0.040376 -1.1151
0.33103999 0.040428001 -1.1165
0.33355001 0.040468 -1.1176
0.33607 0.040506002 -1.1187
0.33655 0.040380001 -1.1152
0.33866 0.040385 -1.1153001
0.34077001 0.040391002 -1.1155
0.34369999 0.040461998 -1.1174999
0.34623 0.0405 -1.1185
0.34751999 0.040438998 -1.1168
0.35089001 0.040543001 -1.1197
0.35385001 0.040612999 -1.1216
0.35472 0.040518999 -1.119
0.35600001 0.040456999 -1.1173
0.35727999 0.040396001 -1.1156
0.35982999 0.040433001 -1.1166
0.36280999 0.040502001 -1.1186
0.36493999 0.040506002 -1.1187
0.36664999 0.040476002 -1.1179
0.36921 0.040511999 -1.1188999
0.37134999 0.040514998 -1.1188999
0.37391999 0.040550999 -1.1199
0.37606999 0.040553998 -1.12
0.37821001 0.040555999 -1.1201
0.38123 0.040624 -1.1219
0.38293999 0.040594 -1.1210999
0.38508999 0.040596001 -1.1212
0.38591999 0.0405 -1.1185
0.38896 0.040566999 -1.1204
0.39111 0.040569 -1.1204
0.39236999 0.040506002 -1.1187
0.39497 0.040539 -1.1196001
0.39758 0.040573001 -1.1205
0.40064999 0.040638 -1.1223
0.40235999 0.040607002 -1.1215
0.40889001 0.040158998 -1.1091
0.41058001 0.040127002 -1.1082
0.41226 0.040095001 -1.1073
0.41442001 0.040095001 -1.1073
0.4161 0.040061999 -1.1064
0.41966999 0.040158 -1.1091
0.42183 0.040157001 -1.109
0.42399001 0.040155999 -1.109
0.42568001 0.040123001 -1.1081001
0.42785001 0.040121999 -1.1081001
0.42952999 0.040088002 -1.1071
0.43074 0.040022999 -1.1052999
0.43700001 0.040146999 -1.1087
0.4382 0.040081002 -1.1069
0.44036999 0.040079001 -1.1069
-0.41615 0.038812 -1.0425
-0.36829999 0.038924001 -1.0455
-0.32602999 0.039202999 -1.053
-0.32418999 0.039182 -1.0524
-0.32260001 0.039196 -1.0528001
-0.31895 0.039152998 -1.0517
-0.31736001 0.039167002 -1.0520999
-0.31600001 0.039218001 -1.0534
-0.29003999 0.039359 -1.0572
-0.28562 0.039166 -1.052
-0.28402999 0.039177999 -1.0523
-0.28244001 0.039190002 -1.0527
-0.22403 0.039335001 -1.0566
-0.21789999 0.039441001 -1.0594
-0.21604 0.039375 -1.0576
-0.21444 0.039383002 -1.0578001
-0.21284001 0.039390001 -1.058
-0.21135999 0.039434999 -1.0592
-0.20987999 0.039478999 -1.0604
-0.20828 0.039485998 -1.0606
-0.20334999 0.039471 -1.0602
-0.19510999 0.03943 -1.0591
-0.19351 0.039436001 -1.0592999
-0.1918 0.039404999 -1.0584
-0.1901 0.039374001 -1.0576
-0.17217 0.039285999 -1.0553
-0.17041001 0.039216999 -1.0534
-0.16294999 0.039499 -1.061
-0.16134 0.039503001 -1.0611
-0.15338001 0.039560001 -1.0626
-0.15177 0.039563999 -1.0627
-0.15016 0.039567001 -1.0628
-0.14861 0.039608002 -1.0639
-0.147 0.039611001 -1.064
-0.14539 0.039613999 -1.0641
-0.14377999 0.039616998 -1.0641
-0.14207 0.039546002 -1.0622
-0.13710999 0.039443001 -1.0595
-0.13555001 0.039483 -1.0605
-0.10507 0.039586 -1.0633
-0.089000002 0.039510999 -1.0613
-0.087393999 0.039510999 -1.0613
-0.085800998 0.039473001 -1.0603
-0.084155001 0.039584 -1.0632
-0.079347998 0.039544001 -1.0622
-0.077739999 0.039542001 -1.0621001
-0.076110996 0.039577998 -1.0631
-0.069558002 0.039721001 -1.0669
-0.067910999 0.039756 -1.0678999
-0.066294 0.039754 -1.0678
-0.064677 0.039751999 -1.0678
-0.063060001 0.039749999 -1.0677
-0.061443001 0.039748002 -1.0676
-0.059785999 0.039783001 -1.0686001
-0.056506 0.039815001 -1.0694
-0.054885998 0.039811999 -1.0694
-0.053266998 0.039809 -1.0693001
-0.051598001 0.039843999 -1.0702
-0.049977001 0.039841 -1.0700999
-0.035659 0.039659999 -1.0653
-0.017591 0.039758001 -1.0678999
-0.015887 0.039790001 -1.0688
-0.014357 0.039748002 -1.0677
-0.012921 0.039668001 -1.0655
-0.011216 0.039700001 -1.0664001
-0.0093195997 0.039804999 -1.0692
-0.0075086998 0.039873999 -1.071
-0.0059837 0.039831001 -1.0699
-0.0041646999 0.039898999 -1.0717
-0.0026420001 0.039856002 -1.0705
0.0021158 0.039799999 -1.069
0.0084768999 0.039735999 -1.0673
0.010093 0.039728999 -1.0671999
0.011709 0.039721999 -1.067
0.046624999 0.039809 -1.0693001
0.048245002 0.039799001 -1.069
0.060901001 0.040024001 -1.0750999
0.062531002 0.040013999 -1.0748
0.064159997 0.040003002 -1.0745
0.065788001 0.039992999 -1.0742
0.067763001 0.040054999 -1.0759
0.069569997 0.040081002 -1.0766
0.091141 0.040004998 -1.0745
0.092569999 0.039956 -1.0732
0.094397999 0.039980002 -1.0739
0.099483997 0.039979 -1.0739
0.10479 0.040013 -1.0748
0.1101 0.040045999 -1.0756
0.11729 0.040100001 -1.0771
0.1187 0.040049002 -1.0757999
0.12056 0.040072002 -1.0763
0.12986 0.039912999 -1.0721
0.13172001 0.039933998 -1.0727
0.14116 0.040307 -1.0827
0.14948 0.039995998 -1.0743001
0.15109999 0.039980002 -1.0739
0.15299 0.039999999 -1.0743999
0.15566 0.040127002 -1.0778
0.15834001 0.040254001 -1.0813
0.1638 0.040275998 -1.0818
0.17117 0.040082999 -1.0766
0.17335001 0.040137 -1.0781
0.17581999 0.040226001 -1.0805
0.17831001 0.040314998 -1.0829
0.18371999 0.040100999 -1.0771
0.18506999 0.040047001 -1.0757
0.18640999 0.039992999 -1.0742
0.18832999 0.040010002 -1.0747
0.19113 0.040134002 -1.0779999
0.19977 0.040305998 -1.0826
0.20081 0.040215999 -1.0802
0.20214 0.040160999 -1.0788
0.20378 0.040142 -1.0782
0.20633 0.040228002 -1.0806
0.20920999 0.040350001 -1.0838
0.21116 0.040364999 -1.0842
0.21280999 0.040344998 -1.0836999
0.21445 0.040325001 -1.0832
0.22855 0.040266 -1.0816
0.25198999 0.040387999 -1.0848
0.25363001 0.040364999 -1.0842
0.25598001 0.040412001 -1.0855
0.25797999 0.040424 -1.0858001
0.25997999 0.040436 -1.0861
0.26163 0.040412001 -1.0855
0.26291999 0.040353999 -1.0839
0.26420999 0.040295999 -1.0824
0.27037999 0.040527001 -1.0886
0.2886 0.040617999 -1.091
0.34375 0.041437 -1.113
0.34669 0.041510001 -1.115
0.34839001 0.041480999 -1.1142
0.35009 0.041452002 -1.1134
0.35178 0.041423 -1.1126
0.35558 0.041561998 -1.1164
0.35855001 0.041634001 -1.1183
0.35940999 0.041537002 -1.1157
0.36111 0.041506998 -1.1149
0.36409 0.041577999 -1.1168
0.36664999 0.041615002 -1.1178
0.36877999 0.041618999 -1.1179
0.37049001 0.041588999 -1.1171
0.37305999 0.041625001 -1.1181
0.37562999 0.041662 -1.1191
0.37733999 0.041630998 -1.1181999
0.38036001 0.041700002 -1.1201
0.38249999 0.041703001 -1.1202
0.38464999 0.041705001 -1.1202
0.38635999 0.041673999 -1.1194
0.38850999 0.041675001 -1.1194
0.39065999 0.041676998 -1.1195
0.39192 0.041611999 -1.1177
0.39363 0.041579999 -1.1169
0.39758 0.041714001 -1.1205
0.40020001 0.041749001 -1.1214
0.41058001 0.041255999 -1.1082
0.41226 0.041223001 -1.1073
0.41442001 0.041223001 -1.1073
0.41751 0.041288 -1.109
0.42107999 0.041386001 -1.1117001
0.42278001 0.041352 -1.1108
0.42399001 0.041285999 -1.109
0.42949 0.041514002 -1.1151
0.42975 0.041381001 -1.1115
0.43097001 0.041315001 -1.1097
0.43674999 0.041409001 -1.1123
0.43845001 0.041374002 -1.1113
0.44110999 0.041404001 -1.1121
-0.36772001 0.039896 -1.0436
-0.36614999 0.039914001 -1.044
-0.32995 0.040336002 -1.0551
-0.32835001 0.040351 -1.0555
-0.32651001 0.040329002 -1.0549001
-0.32030001 0.040151998 -1.0503
-0.29003999 0.040415999 -1.0572
-0.27607 0.040291 -1.0539
-0.27129 0.040325999 -1.0548
-0.2446 0.040233999 -1.0524
-0.22576 0.04042 -1.0573
-0.2243 0.040467001 -1.0585001
-0.21816 0.040576 -1.0614001
-0.21309 0.040523998 -1.0599999
-0.21148001 0.040530998 -1.0602
-0.20964 0.040463001 -1.0584
-0.19925 0.040240001 -1.0526
-0.19765 0.040247001 -1.0528001
-0.14838 0.040518999 -1.0599
-0.14678 0.040522002 -1.0599
-0.14528 0.040601999 -1.062
-0.14368001 0.040605001 -1.0621001
-0.13872001 0.040499002 -1.0592999
-0.13710999 0.040502001 -1.0594
-0.13551 0.040504001 -1.0595
-0.13231 0.040509 -1.0596
-0.13080999 0.040626001 -1.0627
-0.12924001 0.040667001 -1.0637
-0.12763 0.040669002 -1.0638
-0.12599 0.040631998 -1.0628
-0.11951 0.040562999 -1.061
-0.11788 0.040525999 -1.0601
-0.11148 0.040569 -1.0612
-0.10989 0.040608 -1.0622
-0.10827 0.040571 -1.0612
-0.10024 0.040534999 -1.0603
-0.098632 0.040534999 -1.0603
-0.097028002 0.040534999 -1.0603
-0.095422998 0.040573001 -1.0613
-0.087342001 0.040762998 -1.0662
-0.085690998 0.040876001 -1.0692
-0.084044002 0.040952001 -1.0712
-0.082437001 0.040913001 -1.0702
-0.080833003 0.040874001 -1.0691
-0.079251997 0.040796001 -1.0671
-0.077678002 0.040718999 -1.0651
-0.076020002 0.040794 -1.0671
-0.074478 0.040677998 -1.064
-0.071200997 0.040750999 -1.0659
-0.069587 0.040748999 -1.0659
-0.061443001 0.040814999 -1.0676
-0.059866 0.040773999 -1.0664999
-0.058251999 0.040771998 -1.0664999
-0.054977 0.040805001 -1.0673
-0.053314 0.04084 -1.0683
-0.037400998 0.040653002 -1.0634
-0.035790998 0.040649001 -1.0633
-0.034249999 0.040607002 -1.0622
-0.032713 0.040564001 -1.0611
-0.031036001 0.040598001 -1.0619
-0.019292001 0.040793002 -1.067
-0.011124 0.040803999 -1.0673
-0.0074129002 0.040982001 -1.072
-0.0042639999 0.040932 -1.0707
-0.0011231001 0.040881 -1.0693001
0.000183 0.040761001 -1.0662
0.0017970999 0.040754002 -1.066
0.010208 0.040833998 -1.0681
0.011709 0.040789001 -1.0669
0.015419 0.040925998 -1.0705
0.020533999 0.040979002 -1.0719
0.044702999 0.040810999 -1.0675
0.046319 0.040801998 -1.0673
0.062531002 0.041088 -1.0748
0.064159997 0.041076999 -1.0745
0.065959997 0.041104 -1.0752
0.067937002 0.041168001 -1.0769
0.069569997 0.041157 -1.0766
0.094599001 0.041090999 -1.0748
0.096633002 0.041152999 -1.0764
0.10337 0.041138001 -1.0761
0.105 0.041124001 -1.0757
0.10642 0.041072998 -1.0743999
0.10718 0.040911 -1.0700999
0.10859 0.040860001 -1.0688
0.11043 0.040883001 -1.0694
0.1187 0.041125 -1.0757
0.12871 0.041074 -1.0743999
0.12986 0.040984001 -1.072
0.13149001 0.040968999 -1.0716
0.14043 0.041278001 -1.0797
0.14948 0.041069999 -1.0743001
0.15162 0.041127 -1.0757999
0.15351 0.041147001 -1.0763
0.15566 0.041204002 -1.0778
0.15834001 0.041335002 -1.0812
0.16708 0.041322 -1.0809
0.16817001 0.041230999 -1.0785
0.17036 0.041287001 -1.0799
0.17199001 0.041269001 -1.0795
0.17363 0.041251 -1.079
0.17499 0.041196 -1.0776
0.17746 0.041288 -1.08
0.17910001 0.041269001 -1.0795
0.18430001 0.041250002 -1.079
0.18564001 0.041195001 -1.0775
0.18786 0.041249 -1.079
0.1895 0.041230001 -1.0785
0.19142 0.041246999 -1.0789
0.19336 0.041265 -1.0793999
0.19857 0.041243002 -1.0788
0.20081 0.041296002 -1.0802
0.20243999 0.041276 -1.0797
0.20408 0.041255999 -1.0791
0.20572001 0.041235998 -1.0786
0.21382 0.041335002 -1.0812
0.22397 0.041244999 -1.0789
0.22593001 0.04126 -1.0792
0.2279 0.041274 -1.0796
0.23052 0.041361 -1.0819
0.25198999 0.041471999 -1.0848
0.25294 0.041377001 -1.0822999
0.25457999 0.041354001 -1.0817
0.25692001 0.041402001 -1.0829999
0.25927001 0.041450001 -1.0842
0.26234001 0.041568998 -1.0872999
0.26328 0.041473001 -1.0848
0.26420999 0.041377999 -1.0822999
0.26585001 0.041354001 -1.0817
0.2823 0.041476 -1.0849
0.29242 0.041524999 -1.0862
0.29407001 0.041499 -1.0855
0.29649001 0.041542999 -1.0867
0.30298999 0.041604999 -1.0883
0.30464 0.041577999 -1.0876
0.30669001 0.041586 -1.0878
0.3107 0.04177 -1.0926
0.31156999 0.041671999 -1.09
0.31979001 0.041703001 -1.0908
0.32145 0.041675001 -1.0901
0.32681999 0.041625001 -1.0888
0.33092999 0.041806001 -1.0935
0.33465999 0.041784 -1.0929
0.37553 0.042442001 -1.1102
0.38067999 0.042516001 -1.1121
0.39103001 0.042661 -1.1159
0.39318001 0.042663001 -1.1159
0.39623001 0.042732 -1.1178
0.39929 0.042801 -1.1196001
0.41226 0.042330001 -1.1072
0.41442001 0.042330001 -1.1072
0.4192 0.042362001 -1.1081001
0.42089 0.042328 -1.1072
0.42352 0.042360999 -1.108
0.42662999 0.042427 -1.1098
0.42879999 0.042424999 -1.1097
0.43145001 0.042456999 -1.1106
0.43314001 0.042422 -1.1095999
0.43531001 0.04242 -1.1095999
0.43748 0.042417999 -1.1095001
-0.35328999 0.041294001 -1.0529
-0.35170001 0.041311 -1.0534
-0.32554001 0.041218001 -1.051
-0.29482999 0.041418999 -1.0561
-0.24586999 0.041184999 -1.0502
-0.22521 0.041308999 -1.0533
-0.22348 0.041278001 -1.0525
-0.22189 0.041287001 -1.0527
-0.21737 0.041390002 -1.0554
-0.21578 0.041398 -1.0556
-0.21417999 0.041405998 -1.0558
-0.21111 0.041460998 -1.0572
